0.3320 0.2144 0.1311 0.0926 0.0908 0.1065 0.1162 0.0983 0.0385 -0.0658 -0.2009 -0.3257 -0.3710 -0.3077 -0.1485 0.0655 0.2796 0.4387 0.5021 0.4567 0.3320 0.2027 0.1311 0.1384 0.2152 0.3320 0.4487 0.5256 0.5329 0.4613 0.3320 0.1809 0.0000 -0.1845 -0.3235 -0.3751 -0.3235 -0.1845 0.0000 0.1809 0.3320 0.4602 0.5253 0.5043 0.4071 0.2665 0.1258 0.0287 0.0076 0.0727 0.2009 0.3269 0.3786 0.3264 0.1797 -0.0246 -0.2348 -0.3976 -0.4712 -0.4405 -0.3320 -0.1984 -0.0385 0.1247 0.2476 0.2932 0.2476 0.1247 -0.0385 -0.1984 -0.3320 -0.4418 -0.4788 -0.4163 -0.2661 -0.0655 0.1350 0.2852 0.3477 0.3107 0.2009 0.0661 -0.1002 -0.2745 -0.4098 -0.4652 -0.4233 -0.2969 -0.1235 0.0511 0.2009 0.3519 0.5329 0.7201 0.8668 0.9326 0.9011 0.7860 0.6255 0.4657 0.3320 0.2120 0.1159 0.0525 0.0180 0.0000 -0.0180 -0.0525 -0.1159 -0.2120 -0.3320 -0.4623 -0.6022 -0.7205 -0.7736 -0.7317 -0.5925 -0.3838 -0.1543 0.0465 0.2009 0.3519 0.5329 0.7201 0.8668 0.9326 0.9011 0.7860 0.6255 0.4657 0.3320 0.1927 -0.0000 -0.2330 -0.4583 -0.6252 -0.7008 -0.6804 -0.5871 -0.4599 -0.3320 -0.2131 -0.1235 -0.0739 -0.0596 -0.0655 -0.0715 -0.0572 -0.0076 0.0820
0.5165 0.4269 0.3614 0.3229 0.3003 0.2768 0.2364 0.1685 0.0698 -0.0547 -0.1936 -0.3169 -0.3534 -0.2715 -0.0850 0.1614 0.4078 0.5943 0.6763 0.6398 0.5165 0.3872 0.3156 0.3229 0.3998 0.5165 0.6333 0.7102 0.7174 0.6458 0.5165 0.3654 0.1845 0.0000 -0.1390 -0.1906 -0.1390 0.0000 0.1845 0.3654 0.5165 0.6431 0.6987 0.6575 0.5308 0.3551 0.1794 0.0527 0.0114 0.0671 0.1936 0.3204 0.3748 0.3241 0.1728 -0.0461 -0.2819 -0.4785 -0.5894 -0.5940 -0.5165 -0.4147 -0.2928 -0.1685 -0.0748 -0.0400 -0.0748 -0.1685 -0.2928 -0.4147 -0.5165 -0.5976 -0.6108 -0.5312 -0.3698 -0.1614 0.0469 0.2083 0.2879 0.2747 0.1936 0.0883 -0.0514 -0.2071 -0.3359 -0.3982 -0.3740 -0.2702 -0.1170 0.0461 0.1936 0.3440 0.5230 0.7102 0.8637 0.9469 0.9436 0.8646 0.7429 0.6191 0.5165 0.4205 0.3213 0.2176 0.1099 0.0000 -0.1099 -0.2176 -0.3213 -0.4205 -0.5165 -0.6158 -0.7205 -0.8014 -0.8206 -0.7532 -0.5994 -0.3860 -0.1581 0.0400 0.1936 0.3440 0.5230 0.7102 0.8637 0.9469 0.9436 0.8646 0.7429 0.6191 0.5165 0.4059 0.2330 -0.0000 -0.2531 -0.4765 -0.6303 -0.6961 -0.6804 -0.6095 -0.5165 -0.4233 -0.3400 -0.2702 -0.2124 -0.1614 -0.1105 -0.0527 0.0171 0.1004
0.6555 0.6086 0.5790 0.5613 0.5387 0.4938 0.4161 0.3053 0.1705 0.0261 -0.1168 -0.2395 -0.2730 -0.1845 0.0116 0.2694 0.5271 0.7232 0.8117 0.7782 0.6555 0.5262 0.4545 0.4618 0.5387 0.6555 0.7722 0.8491 0.8564 0.7848 0.6555 0.5044 0.3235 0.1390 0.0000 -0.0516 0.0000 0.1390 0.3235 0.5044 0.6555 0.7802 0.8252 0.7613 0.6012 0.3861 0.1710 0.0110 -0.0530 -0.0079 0.1168 0.2464 0.3146 0.2870 0.1594 -0.0449 -0.2820 -0.4977 -0.6425 -0.6892 -0.6555 -0.6003 -0.5343 -0.4669 -0.4161 -0.3973 -0.4161 -0.4669 -0.5343 -0.6003 -0.6555 -0.6961 -0.6841 -0.6002 -0.4530 -0.2694 -0.0857 0.0615 0.1454 0.1574 0.1168 0.0547 -0.0461 -0.1743 -0.2936 -0.3659 -0.3677 -0.2973 -0.1736 -0.0274 0.1168 0.2656 0.4383 0.6186 0.7722 0.8688 0.8948 0.8587 0.7871 0.7129 0.6555 0.5970 0.5062 0.3710 0.1967 0.0000 -0.1967 -0.3710 -0.5062 -0.5970 -0.6555 -0.7109 -0.7736 -0.8206 -0.8207 -0.7520 -0.6128 -0.4232 -0.2184 -0.0340 0.1168 0.2656 0.4383 0.6186 0.7722 0.8688 0.8948 0.8587 0.7871 0.7129 0.6555 0.5891 0.4583 0.2531 0.0000 -0.2582 -0.4787 -0.6303 -0.7008 -0.6994 -0.6555 -0.6016 -0.5374 -0.4588 -0.3677 -0.2694 -0.1710 -0.0799 -0.0013 0.0629
0.7071 0.7119 0.7317 0.7532 0.7520 0.7071 0.6106 0.4704 0.3074 0.1463 0.0000 -0.1233 -0.1600 -0.0783 0.1077 0.3536 0.5994 0.7854 0.8671 0.8304 0.7071 0.5778 0.5062 0.5135 0.5903 0.7071 0.8239 0.9007 0.9080 0.8364 0.7071 0.5560 0.3751 0.1906 0.0516 0.0000 0.0516 0.1906 0.3751 0.5560 0.7071 0.8304 0.8671 0.7854 0.5994 0.3536 0.1077 -0.0783 -0.1600 -0.1233 0.0000 0.1342 0.2255 0.2398 0.1617 0.0000 -0.2133 -0.4304 -0.6006 -0.6902 -0.7071 -0.7071 -0.7071 -0.7071 -0.7071 -0.7071 -0.7071 -0.7071 -0.7071 -0.7071 -0.7071 -0.7011 -0.6662 -0.5918 -0.4826 -0.3536 -0.2245 -0.1153 -0.0410 -0.0061 0.0000 -0.0109 -0.0655 -0.1614 -0.2694 -0.3536 -0.3861 -0.3551 -0.2665 -0.1402 0.0000 0.1463 0.3074 0.4704 0.6106 0.7071 0.7520 0.7532 0.7317 0.7119 0.7071 0.6950 0.6252 0.4765 0.2582 0.0000 -0.2582 -0.4765 -0.6252 -0.6950 -0.7071 -0.7119 -0.7317 -0.7532 -0.7520 -0.7071 -0.6106 -0.4704 -0.3074 -0.1463 0.0000 0.1463 0.3074 0.4704 0.6106 0.7071 0.7520 0.7532 0.7317 0.7119 0.7071 0.6950 0.6252 0.4765 0.2582 0.0000 -0.2582 -0.4765 -0.6252 -0.6950 -0.7071 -0.7011 -0.6662 -0.5918 -0.4826 -0.3536 -0.2245 -0.1153 -0.0410 -0.0061
0.6555 0.7129 0.7871 0.8587 0.8948 0.8688 0.7722 0.6186 0.4383 0.2656 0.1168 -0.0079 -0.0530 0.0110 0.1710 0.3861 0.6012 0.7613 0.8252 0.7802 0.6555 0.5262 0.4545 0.4618 0.5387 0.6555 0.7722 0.8491 0.8564 0.7848 0.6555 0.5044 0.3235 0.1390 -0.0000 -0.0516 0.0000 0.1390 0.3235 0.5044 0.6555 0.7782 0.8117 0.7232 0.5271 0.2694 0.0116 -0.1845 -0.2730 -0.2395 -0.1168 0.0228 0.1424 0.2094 0.1967 0.0965 -0.0741 -0.2765 -0.4614 -0.5888 -0.6555 -0.7106 -0.7767 -0.8441 -0.8948 -0.9136 -0.8948 -0.8441 -0.7767 -0.7106 -0.6555 -0.6036 -0.5509 -0.4969 -0.4418 -0.3861 -0.3304 -0.2753 -0.2213 -0.1686 -0.1168 -0.0765 -0.0850 -0.1486 -0.2451 -0.3412 -0.4045 -0.4129 -0.3593 -0.2530 -0.1168 0.0261 0.1705 0.3053 0.4161 0.4938 0.5387 0.5613 0.5790 0.6086 0.6555 0.6915 0.6529 0.5124 0.2820 0.0000 -0.2820 -0.5124 -0.6529 -0.6915 -0.6555 -0.6106 -0.5925 -0.5994 -0.6128 -0.6106 -0.5755 -0.5007 -0.3905 -0.2576 -0.1168 0.0261 0.1705 0.3053 0.4161 0.4938 0.5387 0.5613 0.5790 0.6086 0.6555 0.6994 0.7008 0.6303 0.4787 0.2582 -0.0000 -0.2531 -0.4583 -0.5891 -0.6555 -0.6981 -0.6976 -0.6383 -0.5271 -0.3861 -0.2451 -0.1339 -0.0746 -0.0742
0.5165 0.6191 0.7429 0.8646 0.9436 0.9469 0.8637 0.7102 0.5230 0.3440 0.1936 0.0671 0.0114 0.0527 0.1794 0.3551 0.5308 0.6575 0.6987 0.6431 0.5165 0.3872 0.3156 0.3229 0.3998 0.5165 0.6333 0.7102 0.7174 0.6458 0.5165 0.3654 0.1845 -0.0000 -0.1390 -0.1906 -0.1390 0.0000 0.1845 0.3654 0.5165 0.6398 0.6763 0.5943 0.4078 0.1614 -0.0850 -0.2715 -0.3534 -0.3169 -0.1936 -0.0488 0.0983 0.2176 0.2715 0.2367 0.1155 -0.0632 -0.2527 -0.4084 -0.5165 -0.6183 -0.7402 -0.8646 -0.9582 -0.9930 -0.9582 -0.8646 -0.7402 -0.6183 -0.5165 -0.4266 -0.3624 -0.3334 -0.3353 -0.3551 -0.3748 -0.3768 -0.3477 -0.2835 -0.1936 -0.1100 -0.0796 -0.1158 -0.2028 -0.3089 -0.3982 -0.4399 -0.4159 -0.3265 -0.1936 -0.0547 0.0698 0.1685 0.2364 0.2768 0.3003 0.3229 0.3614 0.4269 0.5165 0.5948 0.5921 0.4785 0.2673 0.0000 -0.2673 -0.4785 -0.5921 -0.5948 -0.5165 -0.4302 -0.3838 -0.3860 -0.4232 -0.4704 -0.5007 -0.4926 -0.4346 -0.3293 -0.1936 -0.0547 0.0698 0.1685 0.2364 0.2768 0.3003 0.3229 0.3614 0.4269 0.5165 0.6095 0.6804 0.6961 0.6303 0.4765 0.2531 -0.0000 -0.2330 -0.4059 -0.5165 -0.6009 -0.6332 -0.5943 -0.4927 -0.3551 -0.2175 -0.1158 -0.0769 -0.1093
0.3320 0.4657 0.6255 0.7860 0.9011 0.9326 0.8668 0.7201 0.5329 0.3519 0.2009 0.0727 0.0076 0.0287 0.1258 0.2665 0.4071 0.5043 0.5253 0.4602 0.3320 0.2027 0.1311 0.1384 0.2152 0.3320 0.4487 0.5256 0.5329 0.4613 0.3320 0.1809 -0.0000 -0.1845 -0.3235 -0.3751 -0.3235 -0.1845 0.0000 0.1809 0.3320 0.4567 0.5021 0.4387 0.2796 0.0655 -0.1485 -0.3077 -0.3710 -0.3257 -0.2009 -0.0522 0.1159 0.2755 0.3817 0.3997 0.3204 0.1648 -0.0233 -0.1960 -0.3320 -0.4656 -0.6255 -0.7887 -0.9115 -0.9572 -0.9115 -0.7887 -0.6255 -0.4656 -0.3320 -0.2165 -0.1467 -0.1394 -0.1872 -0.2665 -0.3458 -0.3935 -0.3862 -0.3164 -0.2009 -0.0879 -0.0309 -0.0484 -0.1289 -0.2419 -0.3489 -0.4133 -0.4095 -0.3315 -0.2009 -0.0658 0.0385 0.0983 0.1162 0.1065 0.0908 0.0926 0.1311 0.2144 0.3320 0.4406 0.4712 0.3949 0.2244 0.0000 -0.2244 -0.3949 -0.4712 -0.4406 -0.3320 -0.2178 -0.1543 -0.1581 -0.2184 -0.3074 -0.3905 -0.4346 -0.4170 -0.3326 -0.2009 -0.0658 0.0385 0.0983 0.1162 0.1065 0.0908 0.0926 0.1311 0.2144 0.3320 0.4599 0.5871 0.6804 0.7008 0.6252 0.4583 0.2330 -0.0000 -0.1927 -0.3320 -0.4452 -0.5021 -0.4818 -0.3936 -0.2665 -0.1393 -0.0511 -0.0309 -0.0877
0.1511 0.2996 0.4773 0.6580 0.7930 0.8413 0.7871 0.6466 0.4614 0.2804 0.1293 0.0002 -0.0704 -0.0608 0.0195 0.1402 0.2609 0.3412 0.3508 0.2802 0.1511 0.0218 -0.0498 -0.0425 0.0343 0.1511 0.2679 0.3447 0.3520 0.2804 0.1511 0.0000 -0.1809 -0.3654 -0.5044 -0.5560 -0.5044 -0.3654 -0.1809 0.0000 0.1511 0.2780 0.3358 0.2990 0.1788 0.0109 -0.1571 -0.2772 -0.3140 -0.2562 -0.1293 0.0214 0.2003 0.3809 0.5146 0.5608 0.5047 0.3629 0.1776 -0.0022 -0.1511 -0.2996 -0.4774 -0.6588 -0.7954 -0.8461 -0.7954 -0.6588 -0.4774 -0.2996 -0.1511 -0.0238 0.0476 0.0428 -0.0294 -0.1402 -0.2510 -0.3232 -0.3281 -0.2566 -0.1293 -0.0024 0.0671 0.0582 -0.0192 -0.1354 -0.2507 -0.3257 -0.3314 -0.2588 -0.1293 0.0026 0.0890 0.1128 0.0811 0.0169 -0.0481 -0.0822 -0.0615 0.0218 0.1511 0.2756 0.3311 0.2921 0.1699 0.0000 -0.1699 -0.2921 -0.3311 -0.2756 -0.1511 -0.0240 0.0465 0.0400 -0.0340 -0.1463 -0.2576 -0.3293 -0.3326 -0.2590 -0.1293 0.0026 0.0890 0.1128 0.0811 0.0169 -0.0481 -0.0822 -0.0615 0.0218 0.1511 0.2970 0.4599 0.6095 0.6994 0.6950 0.5891 0.4059 0.1927 0.0000 -0.1511 -0.2780 -0.3473 -0.3379 -0.2589 -0.1402 -0.0215 0.0574 0.0669 -0.0024
0.0000 0.1511 0.3320 0.5165 0.6555 0.7071 0.6555 0.5165 0.3320 0.1511 0.0000 -0.1293 -0.2009 -0.1936 -0.1168 0.0000 0.1168 0.1936 0.2009 0.1293 0.0000 -0.1293 -0.2009 -0.1936 -0.1168 0.0000 0.1168 0.1936 0.2009 0.1293 0.0000 -0.1511 -0.3320 -0.5165 -0.6555 -0.7071 -0.6555 -0.5165 -0.3320 -0.1511 0.0000 0.1293 0.2009 0.1936 0.1168 0.0000 -0.1168 -0.1936 -0.2009 -0.1293 0.0000 0.1511 0.3320 0.5165 0.6555 0.7071 0.6555 0.5165 0.3320 0.1511 0.0000 -0.1511 -0.3320 -0.5165 -0.6555 -0.7071 -0.6555 -0.5165 -0.3320 -0.1511 0.0000 0.1293 0.2009 0.1936 0.1168 0.0000 -0.1168 -0.1936 -0.2009 -0.1293 0.0000 0.1293 0.2009 0.1936 0.1168 0.0000 -0.1168 -0.1936 -0.2009 -0.1293 0.0000 0.1293 0.2009 0.1936 0.1168 0.0000 -0.1168 -0.1936 -0.2009 -0.1293 0.0000 0.1293 0.2009 0.1936 0.1168 0.0000 -0.1168 -0.1936 -0.2009 -0.1293 0.0000 0.1293 0.2009 0.1936 0.1168 0.0000 -0.1168 -0.1936 -0.2009 -0.1293 0.0000 0.1293 0.2009 0.1936 0.1168 0.0000 -0.1168 -0.1936 -0.2009 -0.1293 0.0000 0.1511 0.3320 0.5165 0.6555 0.7071 0.6555 0.5165 0.3320 0.1511 0.0000 -0.1293 -0.2009 -0.1936 -0.1168 0.0000 0.1168 0.1936 0.2009 0.1293
-0.1293 0.0192 0.1968 0.3776 0.5126 0.5608 0.5067 0.3662 0.1810 -0.0000 -0.1511 -0.2804 -0.3520 -0.3447 -0.2679 -0.1511 -0.0343 0.0425 0.0498 -0.0218 -0.1511 -0.2806 -0.3532 -0.3475 -0.2725 -0.1572 -0.0410 0.0364 0.0453 -0.0242 -0.1511 -0.2996 -0.4773 -0.6580 -0.7930 -0.8413 -0.7871 -0.6466 -0.4614 -0.2804 -0.1293 0.0024 0.0877 0.1093 0.0742 0.0061 -0.0629 -0.1004 -0.0820 0.0002 0.1293 0.2780 0.4567 0.6398 0.7782 0.8304 0.7802 0.6431 0.4602 0.2802 0.1293 -0.0214 -0.2003 -0.3809 -0.5146 -0.5608 -0.5047 -0.3629 -0.1776 0.0022 0.1511 0.2778 0.3462 0.3351 0.2543 0.1342 0.0149 -0.0635 -0.0715 0.0000 0.1293 0.2588 0.3314 0.3257 0.2507 0.1354 0.0192 -0.0582 -0.0671 0.0024 0.1293 0.2540 0.3106 0.2739 0.1551 -0.0109 -0.1768 -0.2957 -0.3324 -0.2758 -0.1511 -0.0218 0.0615 0.0822 0.0481 -0.0169 -0.0811 -0.1128 -0.0890 -0.0026 0.1293 0.2588 0.3314 0.3257 0.2507 0.1354 0.0192 -0.0582 -0.0671 0.0024 0.1293 0.2540 0.3106 0.2739 0.1551 -0.0109 -0.1768 -0.2957 -0.3324 -0.2758 -0.1511 -0.0002 0.1914 0.4023 0.5822 0.6841 0.6845 0.5913 0.4394 0.2754 0.1293 0.0024 -0.0671 -0.0582 0.0192 0.1354 0.2507 0.3257 0.3314 0.2588
-0.2009 -0.0672 0.0926 0.2531 0.3682 0.3997 0.3339 0.1872 -0.0000 -0.1810 -0.3320 -0.4613 -0.5329 -0.5256 -0.4487 -0.3320 -0.2152 -0.1384 -0.1311 -0.2027 -0.3320 -0.4626 -0.5405 -0.5443 -0.4799 -0.3729 -0.2600 -0.1795 -0.1619 -0.2189 -0.3320 -0.4657 -0.6255 -0.7860 -0.9011 -0.9326 -0.8668 -0.7201 -0.5329 -0.3519 -0.2009 -0.0669 0.0309 0.0769 0.0746 0.0410 0.0013 -0.0171 0.0076 0.0844 0.2009 0.3358 0.5021 0.6763 0.8117 0.8671 0.8252 0.6987 0.5253 0.3508 0.2009 0.0522 -0.1159 -0.2755 -0.3817 -0.3997 -0.3204 -0.1648 0.0233 0.1960 0.3320 0.4439 0.4945 0.4631 0.3624 0.2255 0.0946 0.0100 0.0000 0.0715 0.2009 0.3315 0.4095 0.4133 0.3489 0.2419 0.1289 0.0484 0.0309 0.0879 0.2009 0.3107 0.3477 0.2852 0.1350 -0.0655 -0.2661 -0.4163 -0.4788 -0.4418 -0.3320 -0.2144 -0.1311 -0.0926 -0.0908 -0.1065 -0.1162 -0.0983 -0.0385 0.0658 0.2009 0.3315 0.4095 0.4133 0.3489 0.2419 0.1289 0.0484 0.0309 0.0879 0.2009 0.3107 0.3477 0.2852 0.1350 -0.0655 -0.2661 -0.4163 -0.4788 -0.4418 -0.3320 -0.1938 -0.0076 0.2116 0.4167 0.5597 0.6113 0.5707 0.4636 0.3300 0.2009 0.0879 0.0309 0.0484 0.1289 0.2419 0.3489 0.4133 0.4095 0.3315
-0.1936 -0.0910 0.0327 0.1544 0.2334 0.2367 0.1536 0.0000 -0.1872 -0.3662 -0.5165 -0.6458 -0.7174 -0.7102 -0.6333 -0.5165 -0.3998 -0.3229 -0.3156 -0.3872 -0.5165 -0.6494 -0.7388 -0.7628 -0.7211 -0.6318 -0.5257 -0.4387 -0.4025 -0.4329 -0.5165 -0.6191 -0.7429 -0.8646 -0.9436 -0.9469 -0.8637 -0.7102 -0.5230 -0.3440 -0.1936 -0.0574 0.0511 0.1158 0.1339 0.1153 0.0799 0.0527 0.0572 0.1067 0.1936 0.2990 0.4387 0.5943 0.7232 0.7854 0.7613 0.6575 0.5043 0.3412 0.1936 0.0488 -0.0983 -0.2176 -0.2715 -0.2367 -0.1155 0.0632 0.2527 0.4084 0.5165 0.5973 0.6118 0.5417 0.4048 0.2398 0.0915 0.0000 -0.0100 0.0635 0.1936 0.3265 0.4159 0.4399 0.3982 0.3089 0.2028 0.1158 0.0796 0.1100 0.1936 0.2747 0.2879 0.2083 0.0469 -0.1614 -0.3698 -0.5312 -0.6108 -0.5976 -0.5165 -0.4269 -0.3614 -0.3229 -0.3003 -0.2768 -0.2364 -0.1685 -0.0698 0.0547 0.1936 0.3265 0.4159 0.4399 0.3982 0.3089 0.2028 0.1158 0.0796 0.1100 0.1936 0.2747 0.2879 0.2083 0.0469 -0.1614 -0.3698 -0.5312 -0.6108 -0.5976 -0.5165 -0.4086 -0.2517 -0.0527 0.1506 0.3150 0.4099 0.4259 0.3762 0.2894 0.1936 0.1100 0.0796 0.1158 0.2028 0.3089 0.3982 0.4399 0.4159 0.3265
-0.1168 -0.0593 0.0149 0.0865 0.1226 0.0965 -0.0000 -0.1536 -0.3339 -0.5067 -0.6555 -0.7848 -0.8564 -0.8491 -0.7722 -0.6555 -0.5387 -0.4618 -0.4545 -0.5262 -0.6555 -0.7917 -0.8980 -0.9516 -0.9432 -0.8799 -0.7838 -0.6873 -0.6237 -0.6152 -0.6555 -0.7129 -0.7871 -0.8587 -0.8948 -0.8688 -0.7722 -0.6186 -0.4383 -0.2656 -0.1168 0.0215 0.1393 0.2175 0.2451 0.2245 0.1710 0.1105 0.0715 0.0745 0.1168 0.1788 0.2796 0.4078 0.5271 0.5994 0.6012 0.5308 0.4071 0.2609 0.1168 -0.0228 -0.1424 -0.2094 -0.1967 -0.0965 0.0741 0.2765 0.4614 0.5888 0.6555 0.6912 0.6560 0.5358 0.3561 0.1617 -0.0000 -0.0915 -0.0946 -0.0149 0.1168 0.2530 0.3593 0.4129 0.4045 0.3412 0.2451 0.1486 0.0850 0.0765 0.1168 0.1574 0.1454 0.0615 -0.0857 -0.2694 -0.4530 -0.6002 -0.6841 -0.6961 -0.6555 -0.6086 -0.5790 -0.5613 -0.5387 -0.4938 -0.4161 -0.3053 -0.1705 -0.0261 0.1168 0.2530 0.3593 0.4129 0.4045 0.3412 0.2451 0.1486 0.0850 0.0765 0.1168 0.1574 0.1454 0.0615 -0.0857 -0.2694 -0.4530 -0.6002 -0.6841 -0.6961 -0.6555 -0.5937 -0.4895 -0.3409 -0.1710 -0.0112 0.1109 0.1794 0.1932 0.1653 0.1168 0.0765 0.0850 0.1486 0.2451 0.3412 0.4045 0.4129 0.3593 0.2530
0.0000 0.0048 0.0246 0.0461 0.0449 0.0000 -0.0965 -0.2367 -0.3997 -0.5608 -0.7071 -0.8364 -0.9080 -0.9007 -0.8239 -0.7071 -0.5903 -0.5135 -0.5062 -0.5778 -0.7071 -0.8473 -0.9736 -1.0000 -1.0000 -1.0000 -0.9765 -0.8685 -0.7726 -0.7180 -0.7071 -0.7119 -0.7317 -0.7532 -0.7520 -0.7071 -0.6106 -0.4704 -0.3074 -0.1463 0.0000 0.1402 0.2665 0.3551 0.3861 0.3536 0.2694 0.1614 0.0655 0.0109 0.0000 0.0109 0.0655 0.1614 0.2694 0.3536 0.3861 0.3551 0.2665 0.1402 0.0000 -0.1342 -0.2255 -0.2398 -0.1617 0.0000 0.2133 0.4304 0.6006 0.6902 0.7071 0.6902 0.6006 0.4304 0.2133 0.0000 -0.1617 -0.2398 -0.2255 -0.1342 0.0000 0.1402 0.2665 0.3551 0.3861 0.3536 0.2694 0.1614 0.0655 0.0109 0.0000 -0.0061 -0.0410 -0.1153 -0.2245 -0.3536 -0.4826 -0.5918 -0.6662 -0.7011 -0.7071 -0.7119 -0.7317 -0.7532 -0.7520 -0.7071 -0.6106 -0.4704 -0.3074 -0.1463 0.0000 0.1402 0.2665 0.3551 0.3861 0.3536 0.2694 0.1614 0.0655 0.0109 0.0000 -0.0061 -0.0410 -0.1153 -0.2245 -0.3536 -0.4826 -0.5918 -0.6662 -0.7011 -0.7071 -0.7011 -0.6662 -0.5918 -0.4826 -0.3536 -0.2245 -0.1153 -0.0410 -0.0061 0.0000 0.0109 0.0655 0.1614 0.2694 0.3536 0.3861 0.3551 0.2665 0.1402
0.1168 0.0698 0.0403 0.0226 -0.0000 -0.0449 -0.1226 -0.2334 -0.3682 -0.5126 -0.6555 -0.7848 -0.8564 -0.8491 -0.7722 -0.6555 -0.5387 -0.4618 -0.4545 -0.5262 -0.6555 -0.7997 -0.9459 -1.0000 -1.0000 -1.0000 -1.0000 -0.9466 -0.8183 -0.7176 -0.6555 -0.6086 -0.5790 -0.5613 -0.5387 -0.4938 -0.4161 -0.3053 -0.1705 -0.0261 0.1168 0.2589 0.3936 0.4927 0.5271 0.4826 0.3677 0.2124 0.0596 -0.0527 -0.1168 -0.1571 -0.1485 -0.0850 0.0116 0.1077 0.1710 0.1794 0.1258 0.0195 -0.1168 -0.2464 -0.3146 -0.2870 -0.1594 0.0449 0.2820 0.4977 0.6425 0.6892 0.6555 0.5868 0.4479 0.2385 -0.0000 -0.2133 -0.3561 -0.4048 -0.3624 -0.2543 -0.1168 0.0274 0.1736 0.2973 0.3677 0.3659 0.2936 0.1743 0.0461 -0.0547 -0.1168 -0.1686 -0.2213 -0.2753 -0.3304 -0.3861 -0.4418 -0.4969 -0.5509 -0.6036 -0.6555 -0.7129 -0.7871 -0.8587 -0.8948 -0.8688 -0.7722 -0.6186 -0.4383 -0.2656 -0.1168 0.0274 0.1736 0.2973 0.3677 0.3659 0.2936 0.1743 0.0461 -0.0547 -0.1168 -0.1686 -0.2213 -0.2753 -0.3304 -0.3861 -0.4418 -0.4969 -0.5509 -0.6036 -0.6555 -0.7060 -0.7455 -0.7562 -0.7238 -0.6443 -0.5271 -0.3932 -0.2692 -0.1765 -0.1168 -0.0547 0.0461 0.1743 0.2936 0.3659 0.3677 0.2973 0.1736 0.0274
0.1936 0.1040 0.0385 -0.0000 -0.0226 -0.0461 -0.0865 -0.1544 -0.2531 -0.3776 -0.5165 -0.6458 -0.7174 -0.7102 -0.6333 -0.5165 -0.3998 -0.3229 -0.3156 -0.3872 -0.5165 -0.6641 -0.8271 -0.9804 -1.0000 -1.0000 -1.0000 -0.9172 -0.7616 -0.6219 -0.5165 -0.4269 -0.3614 -0.3229 -0.3003 -0.2768 -0.2364 -0.1685 -0.0698 0.0547 0.1936 0.3379 0.4818 0.5943 0.6383 0.5918 0.4588 0.2702 0.0739 -0.0849 -0.1936 -0.2772 -0.3077 -0.2715 -0.1845 -0.0783 0.0110 0.0527 0.0287 -0.0608 -0.1936 -0.3204 -0.3748 -0.3241 -0.1728 0.0461 0.2819 0.4785 0.5894 0.5940 0.5165 0.4051 0.2303 -0.0000 -0.2385 -0.4304 -0.5358 -0.5417 -0.4631 -0.3351 -0.1936 -0.0461 0.1170 0.2702 0.3740 0.3982 0.3359 0.2071 0.0514 -0.0883 -0.1936 -0.2835 -0.3477 -0.3768 -0.3748 -0.3551 -0.3353 -0.3334 -0.3624 -0.4266 -0.5165 -0.6191 -0.7429 -0.8646 -0.9436 -0.9469 -0.8637 -0.7102 -0.5230 -0.3440 -0.1936 -0.0461 0.1170 0.2702 0.3740 0.3982 0.3359 0.2071 0.0514 -0.0883 -0.1936 -0.2835 -0.3477 -0.3768 -0.3748 -0.3551 -0.3353 -0.3334 -0.3624 -0.4266 -0.5165 -0.6156 -0.7215 -0.8119 -0.8557 -0.8316 -0.7378 -0.5943 -0.4360 -0.2982 -0.1936 -0.0883 0.0514 0.2071 0.3359 0.3982 0.3740 0.2702 0.1170 -0.0461
0.2009 0.0833 -0.0000 -0.0385 -0.0403 -0.0246 -0.0149 -0.0327 -0.0926 -0.1968 -0.3320 -0.4613 -0.5329 -0.5256 -0.4487 -0.3320 -0.2152 -0.1384 -0.1311 -0.2027 -0.3320 -0.4818 -0.6564 -0.8298 -0.9563 -0.9981 -0.9427 -0.8074 -0.6331 -0.4669 -0.3320 -0.2144 -0.1311 -0.0926 -0.0908 -0.1065 -0.1162 -0.0983 -0.0385 0.0658 0.2009 0.3473 0.5021 0.6332 0.6976 0.6662 0.5374 0.3400 0.1235 -0.0626 -0.2009 -0.3140 -0.3710 -0.3534 -0.2730 -0.1600 -0.0530 0.0114 0.0076 -0.0704 -0.2009 -0.3269 -0.3786 -0.3264 -0.1797 0.0246 0.2348 0.3976 0.4712 0.4405 0.3320 0.1926 -0.0000 -0.2303 -0.4479 -0.6006 -0.6560 -0.6118 -0.4945 -0.3462 -0.2009 -0.0511 0.1235 0.2969 0.4233 0.4652 0.4098 0.2745 0.1002 -0.0661 -0.2009 -0.3164 -0.3862 -0.3935 -0.3458 -0.2665 -0.1872 -0.1394 -0.1467 -0.2165 -0.3320 -0.4657 -0.6255 -0.7860 -0.9011 -0.9326 -0.8668 -0.7201 -0.5329 -0.3519 -0.2009 -0.0511 0.1235 0.2969 0.4233 0.4652 0.4098 0.2745 0.1002 -0.0661 -0.2009 -0.3164 -0.3862 -0.3935 -0.3458 -0.2665 -0.1872 -0.1394 -0.1467 -0.2165 -0.3320 -0.4645 -0.6179 -0.7673 -0.8699 -0.8917 -0.8221 -0.6790 -0.5021 -0.3357 -0.2009 -0.0661 0.1002 0.2745 0.4098 0.4652 0.4233 0.2969 0.1235 -0.0511
0.1293 -0.0000 -0.0833 -0.1040 -0.0698 -0.0048 0.0593 0.0910 0.0672 -0.0192 -0.1511 -0.2804 -0.3520 -0.3447 -0.2679 -0.1511 -0.0343 0.0425 0.0498 -0.0218 -0.1511 -0.3020 -0.4820 -0.6649 -0.8020 -0.8522 -0.8000 -0.6615 -0.4785 -0.2998 -0.1511 -0.0218 0.0615 0.0822 0.0481 -0.0169 -0.0811 -0.1128 -0.0890 -0.0026 0.1293 0.2780 0.4452 0.6009 0.6981 0.7011 0.6016 0.4233 0.2131 0.0216 -0.1293 -0.2562 -0.3257 -0.3169 -0.2395 -0.1233 -0.0079 0.0671 0.0727 0.0002 -0.1293 -0.2564 -0.3151 -0.2800 -0.1617 0.0048 0.1722 0.2929 0.3312 0.2756 0.1511 -0.0000 -0.1926 -0.4051 -0.5868 -0.6902 -0.6912 -0.5973 -0.4439 -0.2778 -0.1293 0.0216 0.2016 0.3844 0.5215 0.5717 0.5195 0.3811 0.1981 0.0194 -0.1293 -0.2566 -0.3281 -0.3232 -0.2510 -0.1402 -0.0294 0.0428 0.0476 -0.0238 -0.1511 -0.2996 -0.4773 -0.6580 -0.7930 -0.8413 -0.7871 -0.6466 -0.4614 -0.2804 -0.1293 0.0216 0.2016 0.3844 0.5215 0.5717 0.5195 0.3811 0.1981 0.0194 -0.1293 -0.2566 -0.3281 -0.3232 -0.2510 -0.1402 -0.0294 0.0428 0.0476 -0.0238 -0.1511 -0.2994 -0.4761 -0.6552 -0.7884 -0.8352 -0.7805 -0.6405 -0.4569 -0.2780 -0.1293 0.0194 0.1981 0.3811 0.5195 0.5717 0.5215 0.3844 0.2016 0.0216
0.0000 -0.1293 -0.2009 -0.1936 -0.1168 0.0000 0.1168 0.1936 0.2009 0.1293 0.0000 -0.1293 -0.2009 -0.1936 -0.1168 0.0000 0.1168 0.1936 0.2009 0.1293 0.0000 -0.1511 -0.3320 -0.5165 -0.6555 -0.7071 -0.6555 -0.5165 -0.3320 -0.1511 0.0000 0.1293 0.2009 0.1936 0.1168 0.0000 -0.1168 -0.1936 -0.2009 -0.1293 0.0000 0.1511 0.3320 0.5165 0.6555 0.7071 0.6555 0.5165 0.3320 0.1511 0.0000 -0.1293 -0.2009 -0.1936 -0.1168 0.0000 0.1168 0.1936 0.2009 0.1293 0.0000 -0.1293 -0.2009 -0.1936 -0.1168 0.0000 0.1168 0.1936 0.2009 0.1293 0.0000 -0.1511 -0.3320 -0.5165 -0.6555 -0.7071 -0.6555 -0.5165 -0.3320 -0.1511 0.0000 0.1511 0.3320 0.5165 0.6555 0.7071 0.6555 0.5165 0.3320 0.1511 0.0000 -0.1293 -0.2009 -0.1936 -0.1168 0.0000 0.1168 0.1936 0.2009 0.1293 0.0000 -0.1511 -0.3320 -0.5165 -0.6555 -0.7071 -0.6555 -0.5165 -0.3320 -0.1511 0.0000 0.1511 0.3320 0.5165 0.6555 0.7071 0.6555 0.5165 0.3320 0.1511 0.0000 -0.1293 -0.2009 -0.1936 -0.1168 0.0000 0.1168 0.1936 0.2009 0.1293 0.0000 -0.1511 -0.3320 -0.5165 -0.6555 -0.7071 -0.6555 -0.5165 -0.3320 -0.1511 0.0000 0.1511 0.3320 0.5165 0.6555 0.7071 0.6555 0.5165 0.3320 0.1511
-0.1293 -0.2564 -0.3153 -0.2808 -0.1640 0.0000 0.1640 0.2808 0.3153 0.2564 0.1293 0.0000 -0.0716 -0.0643 0.0126 0.1293 0.2461 0.3229 0.3302 0.2586 0.1293 -0.0216 -0.2014 -0.3836 -0.5192 -0.5669 -0.5113 -0.3690 -0.1821 -0.0002 0.1511 0.2778 0.3345 0.2955 0.1719 0.0000 -0.1719 -0.2955 -0.3345 -0.2778 -0.1511 0.0022 0.1960 0.4084 0.5888 0.6902 0.6892 0.5940 0.4405 0.2756 0.1293 0.0024 -0.0671 -0.0582 0.0192 0.1354 0.2507 0.3257 0.3314 0.2588 0.1293 -0.0024 -0.0877 -0.1093 -0.0742 -0.0061 0.0629 0.1004 0.0820 -0.0002 -0.1293 -0.2754 -0.4394 -0.5913 -0.6845 -0.6841 -0.5822 -0.4023 -0.1914 0.0002 0.1511 0.2994 0.4761 0.6552 0.7884 0.8352 0.7805 0.6405 0.4569 0.2780 0.1293 0.0026 -0.0658 -0.0547 0.0261 0.1463 0.2656 0.3440 0.3519 0.2804 0.1511 -0.0000 -0.1809 -0.3654 -0.5044 -0.5560 -0.5044 -0.3654 -0.1809 0.0000 0.1511 0.3022 0.4831 0.6676 0.8066 0.8582 0.8066 0.6676 0.4831 0.3022 0.1511 0.0214 -0.0522 -0.0488 0.0228 0.1342 0.2464 0.3204 0.3269 0.2564 0.1293 -0.0190 -0.1957 -0.3748 -0.5080 -0.5548 -0.5001 -0.3601 -0.1765 0.0024 0.1511 0.2996 0.4773 0.6580 0.7930 0.8413 0.7871 0.6466 0.4614 0.2804
-0.2009 -0.3268 -0.3786 -0.3290 -0.1901 0.0000 0.1901 0.3290 0.3786 0.3268 0.2009 0.0716 0.0000 0.0073 0.0842 0.2009 0.3177 0.3946 0.4019 0.3302 0.2009 0.0509 -0.1235 -0.2942 -0.4129 -0.4406 -0.3651 -0.2059 -0.0076 0.1798 0.3320 0.4556 0.4945 0.4173 0.2380 0.0000 -0.2380 -0.4173 -0.4945 -0.4556 -0.3320 -0.1776 0.0233 0.2527 0.4614 0.6006 0.6425 0.5894 0.4712 0.3312 0.2009 0.0879 0.0309 0.0484 0.1289 0.2419 0.3489 0.4133 0.4095 0.3315 0.2009 0.0669 -0.0309 -0.0769 -0.0746 -0.0410 -0.0013 0.0171 -0.0076 -0.0844 -0.2009 -0.3300 -0.4636 -0.5707 -0.6113 -0.5597 -0.4167 -0.2116 0.0076 0.1938 0.3320 0.4645 0.6179 0.7673 0.8699 0.8917 0.8221 0.6790 0.5021 0.3357 0.2009 0.0890 0.0385 0.0698 0.1705 0.3074 0.4383 0.5230 0.5329 0.4614 0.3320 0.1809 -0.0000 -0.1845 -0.3235 -0.3751 -0.3235 -0.1845 0.0000 0.1809 0.3320 0.4831 0.6640 0.8485 0.9875 1.0000 0.9875 0.8485 0.6640 0.4831 0.3320 0.2003 0.1159 0.0983 0.1424 0.2255 0.3146 0.3748 0.3786 0.3151 0.2009 0.0685 -0.0850 -0.2344 -0.3370 -0.3587 -0.2892 -0.1461 0.0309 0.1973 0.3320 0.4657 0.6255 0.7860 0.9011 0.9326 0.8668 0.7201 0.5329 0.3519
-0.1936 -0.3196 -0.3721 -0.3241 -0.1875 0.0000 0.1875 0.3241 0.3721 0.3196 0.1936 0.0643 -0.0073 -0.0000 0.0769 0.1936 0.3104 0.3873 0.3946 0.3229 0.1936 0.0453 -0.1197 -0.2702 -0.3593 -0.3520 -0.2415 -0.0527 0.1658 0.3626 0.5165 0.6370 0.6576 0.5417 0.3053 0.0000 -0.3053 -0.5417 -0.6576 -0.6370 -0.5165 -0.3629 -0.1648 0.0632 0.2765 0.4304 0.4977 0.4785 0.3976 0.2929 0.1936 0.1100 0.0796 0.1158 0.2028 0.3089 0.3982 0.4399 0.4159 0.3265 0.1936 0.0574 -0.0511 -0.1158 -0.1339 -0.1153 -0.0799 -0.0527 -0.0572 -0.1067 -0.1936 -0.2894 -0.3762 -0.4259 -0.4099 -0.3150 -0.1506 0.0527 0.2517 0.4086 0.5165 0.6156 0.7215 0.8119 0.8557 0.8316 0.7378 0.5943 0.4360 0.2982 0.1936 0.1128 0.0983 0.1685 0.3053 0.4704 0.6186 0.7102 0.7201 0.6466 0.5165 0.3654 0.1845 0.0000 -0.1390 -0.1906 -0.1390 0.0000 0.1845 0.3654 0.5165 0.6676 0.8485 1.0000 1.0000 1.0000 1.0000 1.0000 0.8485 0.6676 0.5165 0.3809 0.2755 0.2176 0.2094 0.2398 0.2870 0.3241 0.3264 0.2800 0.1936 0.0946 -0.0114 -0.1018 -0.1456 -0.1214 -0.0277 0.1158 0.2741 0.4119 0.5165 0.6191 0.7429 0.8646 0.9436 0.9469 0.8637 0.7102 0.5230 0.3440
-0.1168 -0.2441 -0.3042 -0.2723 -0.1594 0.0000 0.1594 0.2723 0.3042 0.2441 0.1168 -0.0126 -0.0842 -0.0769 -0.0000 0.1168 0.2335 0.3104 0.3177 0.2461 0.1168 -0.0297 -0.1840 -0.3119 -0.3677 -0.3210 -0.1710 0.0511 0.2923 0.4998 0.6555 0.7736 0.7805 0.6353 0.3561 0.0000 -0.3561 -0.6353 -0.7805 -0.7736 -0.6555 -0.5047 -0.3204 -0.1155 0.0741 0.2133 0.2820 0.2819 0.2348 0.1722 0.1168 0.0765 0.0850 0.1486 0.2451 0.3412 0.4045 0.4129 0.3593 0.2530 0.1168 -0.0215 -0.1393 -0.2175 -0.2451 -0.2245 -0.1710 -0.1105 -0.0715 -0.0745 -0.1168 -0.1653 -0.1932 -0.1794 -0.1109 0.0112 0.1710 0.3409 0.4895 0.5937 0.6555 0.7060 0.7455 0.7562 0.7238 0.6443 0.5271 0.3932 0.2692 0.1765 0.1168 0.0811 0.1162 0.2364 0.4161 0.6106 0.7722 0.8637 0.8668 0.7871 0.6555 0.5044 0.3235 0.1390 0.0000 -0.0516 0.0000 0.1390 0.3235 0.5044 0.6555 0.8066 0.9875 1.0000 1.0000 1.0000 1.0000 1.0000 0.9875 0.8066 0.6555 0.5146 0.3817 0.2715 0.1967 0.1617 0.1594 0.1728 0.1797 0.1617 0.1168 0.0662 0.0267 0.0160 0.0484 0.1279 0.2451 0.3790 0.5031 0.5957 0.6555 0.7129 0.7871 0.8587 0.8948 0.8688 0.7722 0.6186 0.4383 0.2656
0.0000 -0.1293 -0.2009 -0.1936 -0.1168 0.0000 0.1168 0.1936 0.2009 0.1293 0.0000 -0.1293 -0.2009 -0.1936 -0.1168 0.0000 0.1168 0.1936 0.2009 0.1293 0.0000 -0.1451 -0.2910 -0.4012 -0.4310 -0.3536 -0.1728 0.0753 0.3342 0.5499 0.7071 0.8243 0.8261 0.6701 0.3749 0.0000 -0.3749 -0.6701 -0.8261 -0.8243 -0.7071 -0.5608 -0.3997 -0.2367 -0.0965 0.0000 0.0449 0.0461 0.0246 0.0048 0.0000 0.0109 0.0655 0.1614 0.2694 0.3536 0.3861 0.3551 0.2665 0.1402 0.0000 -0.1402 -0.2665 -0.3551 -0.3861 -0.3536 -0.2694 -0.1614 -0.0655 -0.0109 0.0000 0.0061 0.0410 0.1153 0.2245 0.3536 0.4826 0.5918 0.6662 0.7011 0.7071 0.7011 0.6662 0.5918 0.4826 0.3536 0.2245 0.1153 0.0410 0.0061 0.0000 0.0169 0.1065 0.2768 0.4938 0.7071 0.8688 0.9469 0.9326 0.8413 0.7071 0.5560 0.3751 0.1906 0.0516 0.0000 0.0516 0.1906 0.3751 0.5560 0.7071 0.8582 1.0000 1.0000 1.0000 1.0000 1.0000 1.0000 1.0000 0.8582 0.7071 0.5608 0.3997 0.2367 0.0965 0.0000 -0.0449 -0.0461 -0.0246 -0.0048 0.0000 0.0061 0.0410 0.1153 0.2245 0.3536 0.4826 0.5918 0.6662 0.7011 0.7071 0.7119 0.7317 0.7532 0.7520 0.7071 0.6106 0.4704 0.3074 0.1463
0.1168 -0.0146 -0.0977 -0.1150 -0.0741 0.0000 0.0741 0.1150 0.0977 0.0146 -0.1168 -0.2461 -0.3177 -0.3104 -0.2335 -0.1168 -0.0000 0.0769 0.0842 0.0126 -0.1168 -0.2613 -0.4040 -0.5073 -0.5271 -0.4378 -0.2451 0.0130 0.2788 0.4978 0.6555 0.7736 0.7805 0.6353 0.3561 0.0000 -0.3561 -0.6353 -0.7805 -0.7736 -0.6555 -0.5146 -0.3817 -0.2715 -0.1967 -0.1617 -0.1594 -0.1728 -0.1797 -0.1617 -0.1168 -0.0547 0.0461 0.1743 0.2936 0.3659 0.3677 0.2973 0.1736 0.0274 -0.1168 -0.2589 -0.3936 -0.4927 -0.5271 -0.4826 -0.3677 -0.2124 -0.0596 0.0527 0.1168 0.1765 0.2692 0.3932 0.5271 0.6443 0.7238 0.7562 0.7455 0.7060 0.6555 0.5937 0.4895 0.3409 0.1710 0.0112 -0.1109 -0.1794 -0.1932 -0.1653 -0.1168 -0.0481 0.0908 0.3003 0.5387 0.7520 0.8948 0.9436 0.9011 0.7930 0.6555 0.5044 0.3235 0.1390 -0.0000 -0.0516 0.0000 0.1390 0.3235 0.5044 0.6555 0.8066 0.9875 1.0000 1.0000 1.0000 1.0000 1.0000 0.9875 0.8066 0.6555 0.5047 0.3204 0.1155 -0.0741 -0.2133 -0.2820 -0.2819 -0.2348 -0.1722 -0.1168 -0.0550 0.0492 0.1978 0.3677 0.5275 0.6497 0.7181 0.7320 0.7040 0.6555 0.6086 0.5790 0.5613 0.5387 0.4938 0.4161 0.3053 0.1705 0.0261
0.1936 0.0610 -0.0297 -0.0632 -0.0461 0.0000 0.0461 0.0632 0.0297 -0.0610 -0.1936 -0.3229 -0.3946 -0.3873 -0.3104 -0.1936 -0.0769 0.0000 0.0073 -0.0643 -0.1936 -0.3387 -0.4845 -0.5943 -0.6237 -0.5457 -0.3644 -0.1158 0.1434 0.3593 0.5165 0.6370 0.6576 0.5417 0.3053 0.0000 -0.3053 -0.5417 -0.6576 -0.6370 -0.5165 -0.3809 -0.2755 -0.2176 -0.2094 -0.2398 -0.2870 -0.3241 -0.3264 -0.2800 -0.1936 -0.0883 0.0514 0.2071 0.3359 0.3982 0.3740 0.2702 0.1170 -0.0461 -0.1936 -0.3379 -0.4818 -0.5943 -0.6383 -0.5918 -0.4588 -0.2702 -0.0739 0.0849 0.1936 0.2982 0.4360 0.5943 0.7378 0.8316 0.8557 0.8119 0.7215 0.6156 0.5165 0.4086 0.2517 0.0527 -0.1506 -0.3150 -0.4099 -0.4259 -0.3762 -0.2894 -0.1936 -0.0822 0.0926 0.3229 0.5613 0.7532 0.8587 0.8646 0.7860 0.6580 0.5165 0.3654 0.1845 -0.0000 -0.1390 -0.1906 -0.1390 0.0000 0.1845 0.3654 0.5165 0.6676 0.8485 1.0000 1.0000 1.0000 1.0000 1.0000 0.8485 0.6676 0.5165 0.3629 0.1648 -0.0632 -0.2765 -0.4304 -0.4977 -0.4785 -0.3976 -0.2929 -0.1936 -0.0857 0.0712 0.2702 0.4735 0.6379 0.7328 0.7488 0.6991 0.6123 0.5165 0.4269 0.3614 0.3229 0.3003 0.2768 0.2364 0.1685 0.0698 -0.0547
0.2009 0.0682 -0.0233 -0.0582 -0.0434 0.0000 0.0434 0.0582 0.0233 -0.0682 -0.2009 -0.3302 -0.4019 -0.3946 -0.3177 -0.2009 -0.0842 -0.0073 0.0000 -0.0716 -0.2009 -0.3475 -0.5021 -0.6305 -0.6872 -0.6416 -0.4927 -0.2714 -0.0309 0.1763 0.3320 0.4556 0.4945 0.4173 0.2380 0.0000 -0.2380 -0.4173 -0.4945 -0.4556 -0.3320 -0.2003 -0.1159 -0.0983 -0.1424 -0.2255 -0.3146 -0.3748 -0.3786 -0.3151 -0.2009 -0.0661 0.1002 0.2745 0.4098 0.4652 0.4233 0.2969 0.1235 -0.0511 -0.2009 -0.3473 -0.5021 -0.6332 -0.6976 -0.6662 -0.5374 -0.3400 -0.1235 0.0626 0.2009 0.3357 0.5021 0.6790 0.8221 0.8917 0.8699 0.7673 0.6179 0.4645 0.3320 0.1938 0.0076 -0.2116 -0.4167 -0.5597 -0.6113 -0.5707 -0.4636 -0.3300 -0.2009 -0.0615 0.1311 0.3614 0.5790 0.7317 0.7871 0.7429 0.6255 0.4773 0.3320 0.1809 -0.0000 -0.1845 -0.3235 -0.3751 -0.3235 -0.1845 0.0000 0.1809 0.3320 0.4831 0.6640 0.8485 0.9875 1.0000 0.9875 0.8485 0.6640 0.4831 0.3320 0.1776 -0.0233 -0.2527 -0.4614 -0.6006 -0.6425 -0.5894 -0.4712 -0.3312 -0.2009 -0.0628 0.1235 0.3427 0.5478 0.6907 0.7424 0.7018 0.5947 0.4610 0.3320 0.2144 0.1311 0.0926 0.0908 0.1065 0.1162 0.0983 0.0385 -0.0658
0.1293 -0.0022 -0.0866 -0.1065 -0.0695 0.0000 0.0695 0.1065 0.0866 0.0022 -0.1293 -0.2586 -0.3302 -0.3229 -0.2461 -0.1293 -0.0126 0.0643 0.0716 0.0000 -0.1293 -0.2780 -0.4451 -0.6001 -0.6958 -0.6962 -0.5934 -0.4111 -0.1971 -0.0024 0.1511 0.2778 0.3345 0.2955 0.1719 0.0000 -0.1719 -0.2955 -0.3345 -0.2778 -0.1511 -0.0214 0.0522 0.0488 -0.0228 -0.1342 -0.2464 -0.3204 -0.3269 -0.2564 -0.1293 0.0194 0.1981 0.3811 0.5195 0.5717 0.5215 0.3844 0.2016 0.0216 -0.1293 -0.2780 -0.4452 -0.6009 -0.6981 -0.7011 -0.6016 -0.4233 -0.2131 -0.0216 0.1293 0.2780 0.4569 0.6405 0.7805 0.8352 0.7884 0.6552 0.4761 0.2994 0.1511 0.0002 -0.1914 -0.4023 -0.5822 -0.6841 -0.6845 -0.5913 -0.4394 -0.2754 -0.1293 0.0218 0.2144 0.4269 0.6086 0.7119 0.7129 0.6191 0.4657 0.2996 0.1511 -0.0000 -0.1809 -0.3654 -0.5044 -0.5560 -0.5044 -0.3654 -0.1809 0.0000 0.1511 0.3022 0.4831 0.6676 0.8066 0.8582 0.8066 0.6676 0.4831 0.3022 0.1511 -0.0022 -0.1960 -0.4084 -0.5888 -0.6902 -0.6892 -0.5940 -0.4405 -0.2756 -0.1293 0.0216 0.2132 0.4241 0.6040 0.7059 0.7063 0.6130 0.4612 0.2972 0.1511 0.0218 -0.0615 -0.0822 -0.0481 0.0169 0.0811 0.1128 0.0890 0.0026
0.0000 -0.1293 -0.2009 -0.1936 -0.1168 0.0000 0.1168 0.1936 0.2009 0.1293 0.0000 -0.1293 -0.2009 -0.1936 -0.1168 0.0000 0.1168 0.1936 0.2009 0.1293 0.0000 -0.1511 -0.3320 -0.5165 -0.6555 -0.7071 -0.6555 -0.5165 -0.3320 -0.1511 0.0000 0.1293 0.2009 0.1936 0.1168 0.0000 -0.1168 -0.1936 -0.2009 -0.1293 0.0000 0.1293 0.2009 0.1936 0.1168 0.0000 -0.1168 -0.1936 -0.2009 -0.1293 0.0000 0.1511 0.3320 0.5165 0.6555 0.7071 0.6555 0.5165 0.3320 0.1511 0.0000 -0.1511 -0.3320 -0.5165 -0.6555 -0.7071 -0.6555 -0.5165 -0.3320 -0.1511 0.0000 0.1511 0.3320 0.5165 0.6555 0.7071 0.6555 0.5165 0.3320 0.1511 0.0000 -0.1511 -0.3320 -0.5165 -0.6555 -0.7071 -0.6555 -0.5165 -0.3320 -0.1511 0.0000 0.1511 0.3320 0.5165 0.6555 0.7071 0.6555 0.5165 0.3320 0.1511 0.0000 -0.1511 -0.3320 -0.5165 -0.6555 -0.7071 -0.6555 -0.5165 -0.3320 -0.1511 0.0000 0.1511 0.3320 0.5165 0.6555 0.7071 0.6555 0.5165 0.3320 0.1511 0.0000 -0.1511 -0.3320 -0.5165 -0.6555 -0.7071 -0.6555 -0.5165 -0.3320 -0.1511 0.0000 0.1511 0.3320 0.5165 0.6555 0.7071 0.6555 0.5165 0.3320 0.1511 0.0000 -0.1293 -0.2009 -0.1936 -0.1168 0.0000 0.1168 0.1936 0.2009 0.1293
-0.1511 -0.2754 -0.3300 -0.2894 -0.1653 0.0061 0.1765 0.2982 0.3357 0.2780 0.1511 0.0216 -0.0509 -0.0453 0.0297 0.1451 0.2613 0.3387 0.3475 0.2780 0.1511 -0.0002 -0.1938 -0.4086 -0.5937 -0.7011 -0.7060 -0.6156 -0.4645 -0.2994 -0.1511 -0.0192 0.0672 0.0910 0.0593 -0.0048 -0.0698 -0.1040 -0.0833 0.0000 0.1293 0.2564 0.3268 0.3196 0.2441 0.1293 0.0146 -0.0610 -0.0682 0.0022 0.1293 0.2780 0.4567 0.6398 0.7782 0.8304 0.7802 0.6431 0.4602 0.2802 0.1293 -0.0242 -0.2189 -0.4329 -0.6152 -0.7180 -0.7176 -0.6219 -0.4669 -0.2998 -0.1511 -0.0002 0.1798 0.3626 0.4998 0.5499 0.4978 0.3593 0.1763 -0.0024 -0.1511 -0.2972 -0.4612 -0.6130 -0.7063 -0.7059 -0.6040 -0.4241 -0.2132 -0.0216 0.1293 0.2758 0.4418 0.5976 0.6961 0.7011 0.6036 0.4266 0.2165 0.0238 -0.1293 -0.2804 -0.4614 -0.6466 -0.7871 -0.8413 -0.7930 -0.6580 -0.4773 -0.2996 -0.1511 -0.0024 0.1763 0.3593 0.4978 0.5499 0.4998 0.3626 0.1798 -0.0002 -0.1511 -0.2998 -0.4669 -0.6219 -0.7176 -0.7180 -0.6152 -0.4329 -0.2189 -0.0242 0.1293 0.2780 0.4452 0.6009 0.6981 0.7011 0.6016 0.4233 0.2131 0.0216 -0.1293 -0.2540 -0.3107 -0.2747 -0.1574 0.0061 0.1686 0.2835 0.3164 0.2566
-0.3320 -0.4394 -0.4636 -0.3762 -0.1932 0.0410 0.2692 0.4360 0.5021 0.4569 0.3320 0.2014 0.1235 0.1197 0.1840 0.2910 0.4040 0.4845 0.5021 0.4451 0.3320 0.1914 -0.0076 -0.2517 -0.4895 -0.6662 -0.7455 -0.7215 -0.6179 -0.4761 -0.3320 -0.1968 -0.0926 -0.0327 -0.0149 -0.0246 -0.0403 -0.0385 0.0000 0.0833 0.2009 0.3153 0.3786 0.3721 0.3042 0.2009 0.0977 0.0297 0.0233 0.0866 0.2009 0.3358 0.5021 0.6763 0.8117 0.8671 0.8252 0.6987 0.5253 0.3508 0.2009 0.0453 -0.1619 -0.4025 -0.6237 -0.7726 -0.8183 -0.7616 -0.6331 -0.4785 -0.3320 -0.1821 -0.0076 0.1658 0.2923 0.3342 0.2788 0.1434 -0.0309 -0.1971 -0.3320 -0.4610 -0.5947 -0.7018 -0.7424 -0.6907 -0.5478 -0.3427 -0.1235 0.0628 0.2009 0.3324 0.4788 0.6108 0.6841 0.6662 0.5509 0.3624 0.1467 -0.0476 -0.2009 -0.3519 -0.5329 -0.7201 -0.8668 -0.9326 -0.9011 -0.7860 -0.6255 -0.4657 -0.3320 -0.1971 -0.0309 0.1434 0.2788 0.3342 0.2923 0.1658 -0.0076 -0.1821 -0.3320 -0.4785 -0.6331 -0.7616 -0.8183 -0.7726 -0.6237 -0.4025 -0.1619 0.0453 0.2009 0.3473 0.5021 0.6332 0.6976 0.6662 0.5374 0.3400 0.1235 -0.0626 -0.2009 -0.3106 -0.3477 -0.2879 -0.1454 0.0410 0.2213 0.3477 0.3862 0.3281
-0.5165 -0.5913 -0.5707 -0.4259 -0.1794 0.1153 0.3932 0.5943 0.6790 0.6405 0.5165 0.3836 0.2942 0.2702 0.3119 0.4012 0.5073 0.5943 0.6305 0.6001 0.5165 0.4023 0.2116 -0.0527 -0.3409 -0.5918 -0.7562 -0.8119 -0.7673 -0.6552 -0.5165 -0.3776 -0.2531 -0.1544 -0.0865 -0.0461 -0.0226 0.0000 0.0385 0.1040 0.1936 0.2808 0.3290 0.3241 0.2723 0.1936 0.1150 0.0632 0.0582 0.1065 0.1936 0.2990 0.4387 0.5943 0.7232 0.7854 0.7613 0.6575 0.5043 0.3412 0.1936 0.0364 -0.1795 -0.4387 -0.6873 -0.8685 -0.9466 -0.9172 -0.8074 -0.6615 -0.5165 -0.3690 -0.2059 -0.0527 0.0511 0.0753 0.0130 -0.1158 -0.2714 -0.4111 -0.5165 -0.6123 -0.6991 -0.7488 -0.7328 -0.6379 -0.4735 -0.2702 -0.0712 0.0857 0.1936 0.2957 0.4163 0.5312 0.6002 0.5918 0.4969 0.3334 0.1394 -0.0428 -0.1936 -0.3440 -0.5230 -0.7102 -0.8637 -0.9469 -0.9436 -0.8646 -0.7429 -0.6191 -0.5165 -0.4111 -0.2714 -0.1158 0.0130 0.0753 0.0511 -0.0527 -0.2059 -0.3690 -0.5165 -0.6615 -0.8074 -0.9172 -0.9466 -0.8685 -0.6873 -0.4387 -0.1795 0.0364 0.1936 0.3379 0.4818 0.5943 0.6383 0.5918 0.4588 0.2702 0.0739 -0.0849 -0.1936 -0.2739 -0.2852 -0.2083 -0.0615 0.1153 0.2753 0.3768 0.3935 0.3232
-0.6555 -0.6845 -0.6113 -0.4099 -0.1109 0.2245 0.5271 0.7378 0.8221 0.7805 0.6555 0.5192 0.4129 0.3593 0.3677 0.4310 0.5271 0.6237 0.6872 0.6958 0.6555 0.5822 0.4167 0.1506 -0.1710 -0.4826 -0.7238 -0.8557 -0.8699 -0.7884 -0.6555 -0.5126 -0.3682 -0.2334 -0.1226 -0.0449 0.0000 0.0226 0.0403 0.0698 0.1168 0.1640 0.1901 0.1875 0.1594 0.1168 0.0741 0.0461 0.0434 0.0695 0.1168 0.1788 0.2796 0.4078 0.5271 0.5994 0.6012 0.5308 0.4071 0.2609 0.1168 -0.0410 -0.2600 -0.5257 -0.7838 -0.9765 -1.0000 -1.0000 -0.9427 -0.8000 -0.6555 -0.5113 -0.3651 -0.2415 -0.1710 -0.1728 -0.2451 -0.3644 -0.4927 -0.5934 -0.6555 -0.7040 -0.7320 -0.7181 -0.6497 -0.5275 -0.3677 -0.1978 -0.0492 0.0550 0.1168 0.1768 0.2661 0.3698 0.4530 0.4826 0.4418 0.3353 0.1872 0.0294 -0.1168 -0.2656 -0.4383 -0.6186 -0.7722 -0.8688 -0.8948 -0.8587 -0.7871 -0.7129 -0.6555 -0.5934 -0.4927 -0.3644 -0.2451 -0.1728 -0.1710 -0.2415 -0.3651 -0.5113 -0.6555 -0.8000 -0.9427 -1.0000 -1.0000 -0.9765 -0.7838 -0.5257 -0.2600 -0.0410 0.1168 0.2589 0.3936 0.4927 0.5271 0.4826 0.3677 0.2124 0.0596 -0.0527 -0.1168 -0.1551 -0.1350 -0.0469 0.0857 0.2245 0.3304 0.3748 0.3458 0.2510
-0.7071 -0.6841 -0.5597 -0.3150 0.0112 0.3536 0.6443 0.8316 0.8917 0.8352 0.7071 0.5669 0.4406 0.3520 0.3210 0.3536 0.4378 0.5457 0.6416 0.6962 0.7071 0.6841 0.5597 0.3150 -0.0112 -0.3536 -0.6443 -0.8316 -0.8917 -0.8352 -0.7071 -0.5608 -0.3997 -0.2367 -0.0965 0.0000 0.0449 0.0461 0.0246 0.0048 0.0000 0.0000 0.0000 0.0000 0.0000 0.0000 0.0000 0.0000 0.0000 0.0000 0.0000 0.0109 0.0655 0.1614 0.2694 0.3536 0.3861 0.3551 0.2665 0.1402 0.0000 -0.1572 -0.3729 -0.6318 -0.8799 -1.0000 -1.0000 -1.0000 -0.9981 -0.8522 -0.7071 -0.5669 -0.4406 -0.3520 -0.3210 -0.3536 -0.4378 -0.5457 -0.6416 -0.6962 -0.7071 -0.7011 -0.6662 -0.5918 -0.4826 -0.3536 -0.2245 -0.1153 -0.0410 -0.0061 0.0000 0.0109 0.0655 0.1614 0.2694 0.3536 0.3861 0.3551 0.2665 0.1402 0.0000 -0.1463 -0.3074 -0.4704 -0.6106 -0.7071 -0.7520 -0.7532 -0.7317 -0.7119 -0.7071 -0.6962 -0.6416 -0.5457 -0.4378 -0.3536 -0.3210 -0.3520 -0.4406 -0.5669 -0.7071 -0.8522 -0.9981 -1.0000 -1.0000 -1.0000 -0.8799 -0.6318 -0.3729 -0.1572 0.0000 0.1402 0.2665 0.3551 0.3861 0.3536 0.2694 0.1614 0.0655 0.0109 0.0000 0.0109 0.0655 0.1614 0.2694 0.3536 0.3861 0.3551 0.2665 0.1402
-0.6555 -0.5822 -0.4167 -0.1506 0.1710 0.4826 0.7238 0.8557 0.8699 0.7884 0.6555 0.5113 0.3651 0.2415 0.1710 0.1728 0.2451 0.3644 0.4927 0.5934 0.6555 0.6845 0.6113 0.4099 0.1109 -0.2245 -0.5271 -0.7378 -0.8221 -0.7805 -0.6555 -0.5067 -0.3339 -0.1536 0.0000 0.0965 0.1226 0.0865 0.0149 -0.0593 -0.1168 -0.1640 -0.1901 -0.1875 -0.1594 -0.1168 -0.0741 -0.0461 -0.0434 -0.0695 -0.1168 -0.1571 -0.1485 -0.0850 0.0116 0.1077 0.1710 0.1794 0.1258 0.0195 -0.1168 -0.2725 -0.4799 -0.7211 -0.9432 -1.0000 -1.0000 -1.0000 -0.9563 -0.8020 -0.6555 -0.5192 -0.4129 -0.3593 -0.3677 -0.4310 -0.5271 -0.6237 -0.6872 -0.6958 -0.6555 -0.5957 -0.5031 -0.3790 -0.2451 -0.1279 -0.0484 -0.0160 -0.0267 -0.0662 -0.1168 -0.1551 -0.1350 -0.0469 0.0857 0.2245 0.3304 0.3748 0.3458 0.2510 0.1168 -0.0261 -0.1705 -0.3053 -0.4161 -0.4938 -0.5387 -0.5613 -0.5790 -0.6086 -0.6555 -0.6958 -0.6872 -0.6237 -0.5271 -0.4310 -0.3677 -0.3593 -0.4129 -0.5192 -0.6555 -0.8020 -0.9563 -1.0000 -1.0000 -1.0000 -0.9432 -0.7211 -0.4799 -0.2725 -0.1168 0.0215 0.1393 0.2175 0.2451 0.2245 0.1710 0.1105 0.0715 0.0745 0.1168 0.1768 0.2661 0.3698 0.4530 0.4826 0.4418 0.3353 0.1872 0.0294
-0.5165 -0.4023 -0.2116 0.0527 0.3409 0.5918 0.7562 0.8119 0.7673 0.6552 0.5165 0.3690 0.2059 0.0527 -0.0511 -0.0753 -0.0130 0.1158 0.2714 0.4111 0.5165 0.5913 0.5707 0.4259 0.1794 -0.1153 -0.3932 -0.5943 -0.6790 -0.6405 -0.5165 -0.3662 -0.1872 0.0000 0.1536 0.2367 0.2334 0.1544 0.0327 -0.0910 -0.1936 -0.2808 -0.3290 -0.3241 -0.2723 -0.1936 -0.1150 -0.0632 -0.0582 -0.1065 -0.1936 -0.2772 -0.3077 -0.2715 -0.1845 -0.0783 0.0110 0.0527 0.0287 -0.0608 -0.1936 -0.3475 -0.5443 -0.7628 -0.9516 -1.0000 -1.0000 -0.9804 -0.8298 -0.6649 -0.5165 -0.3836 -0.2942 -0.2702 -0.3119 -0.4012 -0.5073 -0.5943 -0.6305 -0.6001 -0.5165 -0.4119 -0.2741 -0.1158 0.0277 0.1214 0.1456 0.1018 0.0114 -0.0946 -0.1936 -0.2739 -0.2852 -0.2083 -0.0615 0.1153 0.2753 0.3768 0.3935 0.3232 0.1936 0.0547 -0.0698 -0.1685 -0.2364 -0.2768 -0.3003 -0.3229 -0.3614 -0.4269 -0.5165 -0.6001 -0.6305 -0.5943 -0.5073 -0.4012 -0.3119 -0.2702 -0.2942 -0.3836 -0.5165 -0.6649 -0.8298 -0.9804 -1.0000 -1.0000 -0.9516 -0.7628 -0.5443 -0.3475 -0.1936 -0.0574 0.0511 0.1158 0.1339 0.1153 0.0799 0.0527 0.0572 0.1067 0.1936 0.2957 0.4163 0.5312 0.6002 0.5918 0.4969 0.3334 0.1394 -0.0428
-0.3320 -0.1914 0.0076 0.2517 0.4895 0.6662 0.7455 0.7215 0.6179 0.4761 0.3320 0.1821 0.0076 -0.1658 -0.2923 -0.3342 -0.2788 -0.1434 0.0309 0.1971 0.3320 0.4394 0.4636 0.3762 0.1932 -0.0410 -0.2692 -0.4360 -0.5021 -0.4569 -0.3320 -0.1810 0.0000 0.1872 0.3339 0.3997 0.3682 0.2531 0.0926 -0.0672 -0.2009 -0.3153 -0.3786 -0.3721 -0.3042 -0.2009 -0.0977 -0.0297 -0.0233 -0.0866 -0.2009 -0.3140 -0.3710 -0.3534 -0.2730 -0.1600 -0.0530 0.0114 0.0076 -0.0704 -0.2009 -0.3532 -0.5405 -0.7388 -0.8980 -0.9736 -0.9459 -0.8271 -0.6564 -0.4820 -0.3320 -0.2014 -0.1235 -0.1197 -0.1840 -0.2910 -0.4040 -0.4845 -0.5021 -0.4451 -0.3320 -0.1973 -0.0309 0.1461 0.2892 0.3587 0.3370 0.2344 0.0850 -0.0685 -0.2009 -0.3106 -0.3477 -0.2879 -0.1454 0.0410 0.2213 0.3477 0.3862 0.3281 0.2009 0.0658 -0.0385 -0.0983 -0.1162 -0.1065 -0.0908 -0.0926 -0.1311 -0.2144 -0.3320 -0.4451 -0.5021 -0.4845 -0.4040 -0.2910 -0.1840 -0.1197 -0.1235 -0.2014 -0.3320 -0.4820 -0.6564 -0.8271 -0.9459 -0.9736 -0.8980 -0.7388 -0.5405 -0.3532 -0.2009 -0.0669 0.0309 0.0769 0.0746 0.0410 0.0013 -0.0171 0.0076 0.0844 0.2009 0.3324 0.4788 0.6108 0.6841 0.6662 0.5509 0.3624 0.1467 -0.0476
-0.1511 0.0002 0.1938 0.4086 0.5937 0.7011 0.7060 0.6156 0.4645 0.2994 0.1511 0.0002 -0.1798 -0.3626 -0.4998 -0.5499 -0.4978 -0.3593 -0.1763 0.0024 0.1511 0.2754 0.3300 0.2894 0.1653 -0.0061 -0.1765 -0.2982 -0.3357 -0.2780 -0.1511 0.0000 0.1810 0.3662 0.5067 0.5608 0.5126 0.3776 0.1968 0.0192 -0.1293 -0.2564 -0.3268 -0.3196 -0.2441 -0.1293 -0.0146 0.0610 0.0682 -0.0022 -0.1293 -0.2562 -0.3257 -0.3169 -0.2395 -0.1233 -0.0079 0.0671 0.0727 0.0002 -0.1293 -0.2806 -0.4626 -0.6494 -0.7917 -0.8473 -0.7997 -0.6641 -0.4818 -0.3020 -0.1511 -0.0216 0.0509 0.0453 -0.0297 -0.1451 -0.2613 -0.3387 -0.3475 -0.2780 -0.1511 -0.0024 0.1765 0.3601 0.5001 0.5548 0.5080 0.3748 0.1957 0.0190 -0.1293 -0.2540 -0.3107 -0.2747 -0.1574 0.0061 0.1686 0.2835 0.3164 0.2566 0.1293 -0.0026 -0.0890 -0.1128 -0.0811 -0.0169 0.0481 0.0822 0.0615 -0.0218 -0.1511 -0.2780 -0.3475 -0.3387 -0.2613 -0.1451 -0.0297 0.0453 0.0509 -0.0216 -0.1511 -0.3020 -0.4818 -0.6641 -0.7997 -0.8473 -0.7917 -0.6494 -0.4626 -0.2806 -0.1293 0.0024 0.0877 0.1093 0.0742 0.0061 -0.0629 -0.1004 -0.0820 0.0002 0.1293 0.2758 0.4418 0.5976 0.6961 0.7011 0.6036 0.4266 0.2165 0.0238
0.0000 0.1511 0.3320 0.5165 0.6555 0.7071 0.6555 0.5165 0.3320 0.1511 0.0000 -0.1511 -0.3320 -0.5165 -0.6555 -0.7071 -0.6555 -0.5165 -0.3320 -0.1511 0.0000 0.1293 0.2009 0.1936 0.1168 0.0000 -0.1168 -0.1936 -0.2009 -0.1293 0.0000 0.1511 0.3320 0.5165 0.6555 0.7071 0.6555 0.5165 0.3320 0.1511 0.0000 -0.1293 -0.2009 -0.1936 -0.1168 0.0000 0.1168 0.1936 0.2009 0.1293 0.0000 -0.1293 -0.2009 -0.1936 -0.1168 0.0000 0.1168 0.1936 0.2009 0.1293 0.0000 -0.1511 -0.3320 -0.5165 -0.6555 -0.7071 -0.6555 -0.5165 -0.3320 -0.1511 0.0000 0.1293 0.2009 0.1936 0.1168 0.0000 -0.1168 -0.1936 -0.2009 -0.1293 0.0000 0.1511 0.3320 0.5165 0.6555 0.7071 0.6555 0.5165 0.3320 0.1511 0.0000 -0.1293 -0.2009 -0.1936 -0.1168 0.0000 0.1168 0.1936 0.2009 0.1293 0.0000 -0.1293 -0.2009 -0.1936 -0.1168 0.0000 0.1168 0.1936 0.2009 0.1293 0.0000 -0.1293 -0.2009 -0.1936 -0.1168 0.0000 0.1168 0.1936 0.2009 0.1293 0.0000 -0.1511 -0.3320 -0.5165 -0.6555 -0.7071 -0.6555 -0.5165 -0.3320 -0.1511 0.0000 0.1293 0.2009 0.1936 0.1168 0.0000 -0.1168 -0.1936 -0.2009 -0.1293 0.0000 0.1511 0.3320 0.5165 0.6555 0.7071 0.6555 0.5165 0.3320 0.1511
0.1293 0.2780 0.4452 0.6009 0.6981 0.7011 0.6016 0.4233 0.2131 0.0216 -0.1293 -0.2780 -0.4567 -0.6398 -0.7782 -0.8304 -0.7802 -0.6431 -0.4602 -0.2802 -0.1293 0.0022 0.0866 0.1065 0.0695 0.0000 -0.0695 -0.1065 -0.0866 -0.0022 0.1293 0.2804 0.4613 0.6458 0.7848 0.8364 0.7848 0.6458 0.4613 0.2804 0.1293 -0.0002 -0.0727 -0.0671 0.0079 0.1233 0.2395 0.3169 0.3257 0.2562 0.1293 0.0026 -0.0658 -0.0547 0.0261 0.1463 0.2656 0.3440 0.3519 0.2804 0.1511 -0.0002 -0.1821 -0.3690 -0.5113 -0.5669 -0.5192 -0.3836 -0.2014 -0.0216 0.1293 0.2588 0.3314 0.3257 0.2507 0.1354 0.0192 -0.0582 -0.0671 0.0024 0.1293 0.2778 0.4556 0.6370 0.7736 0.8243 0.7736 0.6370 0.4556 0.2778 0.1293 -0.0002 -0.0844 -0.1067 -0.0745 -0.0109 0.0527 0.0849 0.0626 -0.0216 -0.1511 -0.2758 -0.3324 -0.2957 -0.1768 -0.0109 0.1551 0.2739 0.3106 0.2540 0.1293 0.0024 -0.0669 -0.0574 0.0215 0.1402 0.2589 0.3379 0.3473 0.2780 0.1511 0.0024 -0.1763 -0.3593 -0.4978 -0.5499 -0.4998 -0.3626 -0.1798 0.0002 0.1511 0.2780 0.3358 0.2990 0.1788 0.0109 -0.1571 -0.2772 -0.3140 -0.2562 -0.1293 0.0240 0.2177 0.4294 0.6083 0.7071 0.7027 0.6037 0.4463 0.2782
0.2009 0.3473 0.5021 0.6332 0.6976 0.6662 0.5374 0.3400 0.1235 -0.0626 -0.2009 -0.3358 -0.5021 -0.6763 -0.8117 -0.8671 -0.8252 -0.6987 -0.5253 -0.3508 -0.2009 -0.0682 0.0233 0.0582 0.0434 0.0000 -0.0434 -0.0582 -0.0233 0.0682 0.2009 0.3520 0.5329 0.7174 0.8564 0.9080 0.8564 0.7174 0.5329 0.3520 0.2009 0.0704 -0.0076 -0.0114 0.0530 0.1600 0.2730 0.3534 0.3710 0.3140 0.2009 0.0890 0.0385 0.0698 0.1705 0.3074 0.4383 0.5230 0.5329 0.4614 0.3320 0.1798 -0.0076 -0.2059 -0.3651 -0.4406 -0.4129 -0.2942 -0.1235 0.0509 0.2009 0.3315 0.4095 0.4133 0.3489 0.2419 0.1289 0.0484 0.0309 0.0879 0.2009 0.3345 0.4945 0.6576 0.7805 0.8261 0.7805 0.6576 0.4945 0.3345 0.2009 0.0820 -0.0076 -0.0572 -0.0715 -0.0655 -0.0596 -0.0739 -0.1235 -0.2131 -0.3320 -0.4418 -0.4788 -0.4163 -0.2661 -0.0655 0.1350 0.2852 0.3477 0.3107 0.2009 0.0877 0.0309 0.0511 0.1393 0.2665 0.3936 0.4818 0.5021 0.4452 0.3320 0.1971 0.0309 -0.1434 -0.2788 -0.3342 -0.2923 -0.1658 0.0076 0.1821 0.3320 0.4567 0.5021 0.4387 0.2796 0.0655 -0.1485 -0.3077 -0.3710 -0.3257 -0.2009 -0.0464 0.1543 0.3811 0.5821 0.7071 0.7288 0.6519 0.5096 0.3486
0.1936 0.3379 0.4818 0.5943 0.6383 0.5918 0.4588 0.2702 0.0739 -0.0849 -0.1936 -0.2990 -0.4387 -0.5943 -0.7232 -0.7854 -0.7613 -0.6575 -0.5043 -0.3412 -0.1936 -0.0610 0.0297 0.0632 0.0461 0.0000 -0.0461 -0.0632 -0.0297 0.0610 0.1936 0.3447 0.5256 0.7102 0.8491 0.9007 0.8491 0.7102 0.5256 0.3447 0.1936 0.0608 -0.0287 -0.0527 -0.0110 0.0783 0.1845 0.2715 0.3077 0.2772 0.1936 0.1128 0.0983 0.1685 0.3053 0.4704 0.6186 0.7102 0.7201 0.6466 0.5165 0.3626 0.1658 -0.0527 -0.2415 -0.3520 -0.3593 -0.2702 -0.1197 0.0453 0.1936 0.3265 0.4159 0.4399 0.3982 0.3089 0.2028 0.1158 0.0796 0.1100 0.1936 0.2955 0.4173 0.5417 0.6353 0.6701 0.6353 0.5417 0.4173 0.2955 0.1936 0.1004 0.0171 -0.0527 -0.1105 -0.1614 -0.2124 -0.2702 -0.3400 -0.4233 -0.5165 -0.5976 -0.6108 -0.5312 -0.3698 -0.1614 0.0469 0.2083 0.2879 0.2747 0.1936 0.1093 0.0769 0.1158 0.2175 0.3551 0.4927 0.5943 0.6332 0.6009 0.5165 0.4111 0.2714 0.1158 -0.0130 -0.0753 -0.0511 0.0527 0.2059 0.3690 0.5165 0.6398 0.6763 0.5943 0.4078 0.1614 -0.0850 -0.2715 -0.3534 -0.3169 -0.1936 -0.0392 0.1608 0.3860 0.5848 0.7071 0.7262 0.6470 0.5032 0.3414
0.1168 0.2589 0.3936 0.4927 0.5271 0.4826 0.3677 0.2124 0.0596 -0.0527 -0.1168 -0.1788 -0.2796 -0.4078 -0.5271 -0.5994 -0.6012 -0.5308 -0.4071 -0.2609 -0.1168 0.0146 0.0977 0.1150 0.0741 0.0000 -0.0741 -0.1150 -0.0977 -0.0146 0.1168 0.2679 0.4487 0.6333 0.7722 0.8239 0.7722 0.6333 0.4487 0.2679 0.1168 -0.0195 -0.1258 -0.1794 -0.1710 -0.1077 -0.0116 0.0850 0.1485 0.1571 0.1168 0.0811 0.1162 0.2364 0.4161 0.6106 0.7722 0.8637 0.8668 0.7871 0.6555 0.4998 0.2923 0.0511 -0.1710 -0.3210 -0.3677 -0.3119 -0.1840 -0.0297 0.1168 0.2530 0.3593 0.4129 0.4045 0.3412 0.2451 0.1486 0.0850 0.0765 0.1168 0.1719 0.2380 0.3053 0.3561 0.3749 0.3561 0.3053 0.2380 0.1719 0.1168 0.0629 -0.0013 -0.0799 -0.1710 -0.2694 -0.3677 -0.4588 -0.5374 -0.6016 -0.6555 -0.6961 -0.6841 -0.6002 -0.4530 -0.2694 -0.0857 0.0615 0.1454 0.1574 0.1168 0.0742 0.0746 0.1339 0.2451 0.3861 0.5271 0.6383 0.6976 0.6981 0.6555 0.5934 0.4927 0.3644 0.2451 0.1728 0.1710 0.2415 0.3651 0.5113 0.6555 0.7782 0.8117 0.7232 0.5271 0.2694 0.0116 -0.1845 -0.2730 -0.2395 -0.1168 0.0363 0.2288 0.4378 0.6128 0.7071 0.6981 0.5952 0.4352 0.2659
0.0000 0.1402 0.2665 0.3551 0.3861 0.3536 0.2694 0.1614 0.0655 0.0109 0.0000 -0.0109 -0.0655 -0.1614 -0.2694 -0.3536 -0.3861 -0.3551 -0.2665 -0.1402 0.0000 0.1293 0.2009 0.1936 0.1168 0.0000 -0.1168 -0.1936 -0.2009 -0.1293 0.0000 0.1511 0.3320 0.5165 0.6555 0.7071 0.6555 0.5165 0.3320 0.1511 0.0000 -0.1402 -0.2665 -0.3551 -0.3861 -0.3536 -0.2694 -0.1614 -0.0655 -0.0109 0.0000 0.0169 0.1065 0.2768 0.4938 0.7071 0.8688 0.9469 0.9326 0.8413 0.7071 0.5499 0.3342 0.0753 -0.1728 -0.3536 -0.4310 -0.4012 -0.2910 -0.1451 0.0000 0.1402 0.2665 0.3551 0.3861 0.3536 0.2694 0.1614 0.0655 0.0109 0.0000 0.0000 -0.0000 0.0000 -0.0000 0.0000 0.0000 0.0000 0.0000 0.0000 0.0000 -0.0061 -0.0410 -0.1153 -0.2245 -0.3536 -0.4826 -0.5918 -0.6662 -0.7011 -0.7071 -0.7011 -0.6662 -0.5918 -0.4826 -0.3536 -0.2245 -0.1153 -0.0410 -0.0061 0.0000 0.0061 0.0410 0.1153 0.2245 0.3536 0.4826 0.5918 0.6662 0.7011 0.7071 0.6962 0.6416 0.5457 0.4378 0.3536 0.3210 0.3520 0.4406 0.5669 0.7071 0.8304 0.8671 0.7854 0.5994 0.3536 0.1077 -0.0783 -0.1600 -0.1233 0.0000 0.1511 0.3320 0.5165 0.6555 0.7071 0.6555 0.5165 0.3320 0.1511
-0.1168 0.0215 0.1393 0.2175 0.2451 0.2245 0.1710 0.1105 0.0715 0.0745 0.1168 0.1571 0.1485 0.0850 -0.0116 -0.1077 -0.1710 -0.1794 -0.1258 -0.0195 0.1168 0.2441 0.3042 0.2723 0.1594 0.0000 -0.1594 -0.2723 -0.3042 -0.2441 -0.1168 0.0343 0.2152 0.3998 0.5387 0.5903 0.5387 0.3998 0.2152 0.0343 -0.1168 -0.2609 -0.4071 -0.5308 -0.6012 -0.5994 -0.5271 -0.4078 -0.2796 -0.1788 -0.1168 -0.0481 0.0908 0.3003 0.5387 0.7520 0.8948 0.9436 0.9011 0.7930 0.6555 0.4978 0.2788 0.0130 -0.2451 -0.4378 -0.5271 -0.5073 -0.4040 -0.2613 -0.1168 0.0274 0.1736 0.2973 0.3677 0.3659 0.2936 0.1743 0.0461 -0.0547 -0.1168 -0.1719 -0.2380 -0.3053 -0.3561 -0.3749 -0.3561 -0.3053 -0.2380 -0.1719 -0.1168 -0.0742 -0.0746 -0.1339 -0.2451 -0.3861 -0.5271 -0.6383 -0.6976 -0.6981 -0.6555 -0.6036 -0.5509 -0.4969 -0.4418 -0.3861 -0.3304 -0.2753 -0.2213 -0.1686 -0.1168 -0.0629 0.0013 0.0799 0.1710 0.2694 0.3677 0.4588 0.5374 0.6016 0.6555 0.6958 0.6872 0.6237 0.5271 0.4310 0.3677 0.3593 0.4129 0.5192 0.6555 0.7802 0.8252 0.7613 0.6012 0.3861 0.1710 0.0110 -0.0530 -0.0079 0.1168 0.2659 0.4352 0.5952 0.6981 0.7071 0.6128 0.4378 0.2288 0.0363
-0.1936 -0.0574 0.0511 0.1158 0.1339 0.1153 0.0799 0.0527 0.0572 0.1067 0.1936 0.2772 0.3077 0.2715 0.1845 0.0783 -0.0110 -0.0527 -0.0287 0.0608 0.1936 0.3196 0.3721 0.3241 0.1875 0.0000 -0.1875 -0.3241 -0.3721 -0.3196 -0.1936 -0.0425 0.1384 0.3229 0.4618 0.5135 0.4618 0.3229 0.1384 -0.0425 -0.1936 -0.3412 -0.5043 -0.6575 -0.7613 -0.7854 -0.7232 -0.5943 -0.4387 -0.2990 -0.1936 -0.0822 0.0926 0.3229 0.5613 0.7532 0.8587 0.8646 0.7860 0.6580 0.5165 0.3593 0.1434 -0.1158 -0.3644 -0.5457 -0.6237 -0.5943 -0.4845 -0.3387 -0.1936 -0.0461 0.1170 0.2702 0.3740 0.3982 0.3359 0.2071 0.0514 -0.0883 -0.1936 -0.2955 -0.4173 -0.5417 -0.6353 -0.6701 -0.6353 -0.5417 -0.4173 -0.2955 -0.1936 -0.1093 -0.0769 -0.1158 -0.2175 -0.3551 -0.4927 -0.5943 -0.6332 -0.6009 -0.5165 -0.4266 -0.3624 -0.3334 -0.3353 -0.3551 -0.3748 -0.3768 -0.3477 -0.2835 -0.1936 -0.1004 -0.0171 0.0527 0.1105 0.1614 0.2124 0.2702 0.3400 0.4233 0.5165 0.6001 0.6305 0.5943 0.5073 0.4012 0.3119 0.2702 0.2942 0.3836 0.5165 0.6431 0.6987 0.6575 0.5308 0.3551 0.1794 0.0527 0.0114 0.0671 0.1936 0.3414 0.5032 0.6470 0.7262 0.7071 0.5848 0.3860 0.1608 -0.0392
-0.2009 -0.0669 0.0309 0.0769 0.0746 0.0410 0.0013 -0.0171 0.0076 0.0844 0.2009 0.3140 0.3710 0.3534 0.2730 0.1600 0.0530 -0.0114 -0.0076 0.0704 0.2009 0.3268 0.3786 0.3290 0.1901 0.0000 -0.1901 -0.3290 -0.3786 -0.3268 -0.2009 -0.0498 0.1311 0.3156 0.4545 0.5062 0.4545 0.3156 0.1311 -0.0498 -0.2009 -0.3508 -0.5253 -0.6987 -0.8252 -0.8671 -0.8117 -0.6763 -0.5021 -0.3358 -0.2009 -0.0615 0.1311 0.3614 0.5790 0.7317 0.7871 0.7429 0.6255 0.4773 0.3320 0.1763 -0.0309 -0.2714 -0.4927 -0.6416 -0.6872 -0.6305 -0.5021 -0.3475 -0.2009 -0.0511 0.1235 0.2969 0.4233 0.4652 0.4098 0.2745 0.1002 -0.0661 -0.2009 -0.3345 -0.4945 -0.6576 -0.7805 -0.8261 -0.7805 -0.6576 -0.4945 -0.3345 -0.2009 -0.0877 -0.0309 -0.0511 -0.1393 -0.2665 -0.3936 -0.4818 -0.5021 -0.4452 -0.3320 -0.2165 -0.1467 -0.1394 -0.1872 -0.2665 -0.3458 -0.3935 -0.3862 -0.3164 -0.2009 -0.0820 0.0076 0.0572 0.0715 0.0655 0.0596 0.0739 0.1235 0.2131 0.3320 0.4451 0.5021 0.4845 0.4040 0.2910 0.1840 0.1197 0.1235 0.2014 0.3320 0.4602 0.5253 0.5043 0.4071 0.2665 0.1258 0.0287 0.0076 0.0727 0.2009 0.3486 0.5096 0.6519 0.7288 0.7071 0.5821 0.3811 0.1543 -0.0464
-0.1293 0.0024 0.0877 0.1093 0.0742 0.0061 -0.0629 -0.1004 -0.0820 0.0002 0.1293 0.2562 0.3257 0.3169 0.2395 0.1233 0.0079 -0.0671 -0.0727 -0.0002 0.1293 0.2564 0.3153 0.2808 0.1640 0.0000 -0.1640 -0.2808 -0.3153 -0.2564 -0.1293 0.0218 0.2027 0.3872 0.5262 0.5778 0.5262 0.3872 0.2027 0.0218 -0.1293 -0.2802 -0.4602 -0.6431 -0.7802 -0.8304 -0.7782 -0.6398 -0.4567 -0.2780 -0.1293 0.0218 0.2144 0.4269 0.6086 0.7119 0.7129 0.6191 0.4657 0.2996 0.1511 -0.0024 -0.1971 -0.4111 -0.5934 -0.6962 -0.6958 -0.6001 -0.4451 -0.2780 -0.1293 0.0216 0.2016 0.3844 0.5215 0.5717 0.5195 0.3811 0.1981 0.0194 -0.1293 -0.2778 -0.4556 -0.6370 -0.7736 -0.8243 -0.7736 -0.6370 -0.4556 -0.2778 -0.1293 -0.0024 0.0669 0.0574 -0.0215 -0.1402 -0.2589 -0.3379 -0.3473 -0.2780 -0.1511 -0.0238 0.0476 0.0428 -0.0294 -0.1402 -0.2510 -0.3232 -0.3281 -0.2566 -0.1293 0.0002 0.0844 0.1067 0.0745 0.0109 -0.0527 -0.0849 -0.0626 0.0216 0.1511 0.2780 0.3475 0.3387 0.2613 0.1451 0.0297 -0.0453 -0.0509 0.0216 0.1511 0.2802 0.3508 0.3412 0.2609 0.1402 0.0195 -0.0608 -0.0704 0.0002 0.1293 0.2782 0.4463 0.6037 0.7027 0.7071 0.6083 0.4294 0.2177 0.0240
0.0000 0.1293 0.2009 0.1936 0.1168 0.0000 -0.1168 -0.1936 -0.2009 -0.1293 0.0000 0.1293 0.2009 0.1936 0.1168 0.0000 -0.1168 -0.1936 -0.2009 -0.1293 0.0000 0.1293 0.2009 0.1936 0.1168 0.0000 -0.1168 -0.1936 -0.2009 -0.1293 0.0000 0.1511 0.3320 0.5165 0.6555 0.7071 0.6555 0.5165 0.3320 0.1511 0.0000 -0.1511 -0.3320 -0.5165 -0.6555 -0.7071 -0.6555 -0.5165 -0.3320 -0.1511 0.0000 0.1511 0.3320 0.5165 0.6555 0.7071 0.6555 0.5165 0.3320 0.1511 0.0000 -0.1511 -0.3320 -0.5165 -0.6555 -0.7071 -0.6555 -0.5165 -0.3320 -0.1511 0.0000 0.1511 0.3320 0.5165 0.6555 0.7071 0.6555 0.5165 0.3320 0.1511 0.0000 -0.1511 -0.3320 -0.5165 -0.6555 -0.7071 -0.6555 -0.5165 -0.3320 -0.1511 0.0000 0.1293 0.2009 0.1936 0.1168 0.0000 -0.1168 -0.1936 -0.2009 -0.1293 0.0000 0.1293 0.2009 0.1936 0.1168 0.0000 -0.1168 -0.1936 -0.2009 -0.1293 0.0000 0.1293 0.2009 0.1936 0.1168 0.0000 -0.1168 -0.1936 -0.2009 -0.1293 0.0000 0.1293 0.2009 0.1936 0.1168 0.0000 -0.1168 -0.1936 -0.2009 -0.1293 0.0000 0.1293 0.2009 0.1936 0.1168 0.0000 -0.1168 -0.1936 -0.2009 -0.1293 0.0000 0.1511 0.3320 0.5165 0.6555 0.7071 0.6555 0.5165 0.3320 0.1511
0.1511 0.2756 0.3312 0.2929 0.1722 0.0048 -0.1617 -0.2800 -0.3151 -0.2564 -0.1293 0.0000 0.0715 0.0635 -0.0149 -0.1342 -0.2543 -0.3351 -0.3462 -0.2778 -0.1511 -0.0214 0.0639 0.0885 0.0596 0.0000 -0.0596 -0.0885 -0.0639 0.0214 0.1511 0.2998 0.4785 0.6615 0.8000 0.8522 0.8020 0.6649 0.4820 0.3020 0.1511 -0.0002 -0.1821 -0.3690 -0.5113 -0.5669 -0.5192 -0.3836 -0.2014 -0.0216 0.1293 0.2778 0.4439 0.5973 0.6912 0.6902 0.5868 0.4051 0.1926 0.0000 -0.1511 -0.2972 -0.4610 -0.6123 -0.7040 -0.7011 -0.5957 -0.4119 -0.1973 -0.0024 0.1511 0.3022 0.4831 0.6676 0.8066 0.8582 0.8066 0.6676 0.4831 0.3022 0.1511 0.0000 -0.1810 -0.3662 -0.5067 -0.5608 -0.5126 -0.3776 -0.1968 -0.0192 0.1293 0.2566 0.3281 0.3232 0.2510 0.1402 0.0294 -0.0428 -0.0476 0.0238 0.1511 0.2780 0.3475 0.3387 0.2613 0.1451 0.0297 -0.0453 -0.0509 0.0216 0.1511 0.2780 0.3358 0.2990 0.1788 0.0109 -0.1571 -0.2772 -0.3140 -0.2562 -0.1293 0.0000 0.0716 0.0643 -0.0126 -0.1293 -0.2461 -0.3229 -0.3302 -0.2586 -0.1293 -0.0002 0.0704 0.0608 -0.0195 -0.1402 -0.2609 -0.3412 -0.3508 -0.2802 -0.1511 0.0022 0.1960 0.4084 0.5888 0.6902 0.6892 0.5940 0.4405 0.2756
0.3320 0.4405 0.4712 0.3976 0.2348 0.0246 -0.1797 -0.3264 -0.3786 -0.3269 -0.2009 -0.0715 -0.0000 -0.0100 -0.0946 -0.2255 -0.3624 -0.4631 -0.4945 -0.4439 -0.3320 -0.2120 -0.1159 -0.0525 -0.0180 0.0000 0.0180 0.0525 0.1159 0.2120 0.3320 0.4669 0.6331 0.8074 0.9427 0.9981 0.9563 0.8298 0.6564 0.4818 0.3320 0.1798 -0.0076 -0.2059 -0.3651 -0.4406 -0.4129 -0.2942 -0.1235 0.0509 0.2009 0.3462 0.4945 0.6118 0.6560 0.6006 0.4479 0.2303 -0.0000 -0.1926 -0.3320 -0.4612 -0.5947 -0.6991 -0.7320 -0.6662 -0.5031 -0.2741 -0.0309 0.1765 0.3320 0.4831 0.6640 0.8485 0.9875 1.0000 0.9875 0.8485 0.6640 0.4831 0.3320 0.1810 0.0000 -0.1872 -0.3339 -0.3997 -0.3682 -0.2531 -0.0926 0.0672 0.2009 0.3164 0.3862 0.3935 0.3458 0.2665 0.1872 0.1394 0.1467 0.2165 0.3320 0.4451 0.5021 0.4845 0.4040 0.2910 0.1840 0.1197 0.1235 0.2014 0.3320 0.4567 0.5021 0.4387 0.2796 0.0655 -0.1485 -0.3077 -0.3710 -0.3257 -0.2009 -0.0716 0.0000 -0.0073 -0.0842 -0.2009 -0.3177 -0.3946 -0.4019 -0.3302 -0.2009 -0.0727 -0.0076 -0.0287 -0.1258 -0.2665 -0.4071 -0.5043 -0.5253 -0.4602 -0.3320 -0.1776 0.0233 0.2527 0.4614 0.6006 0.6425 0.5894 0.4712 0.3312
0.5165 0.5940 0.5894 0.4785 0.2819 0.0461 -0.1728 -0.3241 -0.3748 -0.3204 -0.1936 -0.0635 0.0100 0.0000 -0.0915 -0.2398 -0.4048 -0.5417 -0.6118 -0.5973 -0.5165 -0.4205 -0.3213 -0.2176 -0.1099 0.0000 0.1099 0.2176 0.3213 0.4205 0.5165 0.6219 0.7616 0.9172 1.0000 1.0000 1.0000 0.9804 0.8271 0.6641 0.5165 0.3626 0.1658 -0.0527 -0.2415 -0.3520 -0.3593 -0.2702 -0.1197 0.0453 0.1936 0.3351 0.4631 0.5417 0.5358 0.4304 0.2385 -0.0000 -0.2303 -0.4051 -0.5165 -0.6130 -0.7018 -0.7488 -0.7181 -0.5918 -0.3790 -0.1158 0.1461 0.3601 0.5165 0.6676 0.8485 1.0000 1.0000 1.0000 1.0000 1.0000 0.8485 0.6676 0.5165 0.3662 0.1872 0.0000 -0.1536 -0.2367 -0.2334 -0.1544 -0.0327 0.0910 0.1936 0.2835 0.3477 0.3768 0.3748 0.3551 0.3353 0.3334 0.3624 0.4266 0.5165 0.6001 0.6305 0.5943 0.5073 0.4012 0.3119 0.2702 0.2942 0.3836 0.5165 0.6398 0.6763 0.5943 0.4078 0.1614 -0.0850 -0.2715 -0.3534 -0.3169 -0.1936 -0.0643 0.0073 0.0000 -0.0769 -0.1936 -0.3104 -0.3873 -0.3946 -0.3229 -0.1936 -0.0671 -0.0114 -0.0527 -0.1794 -0.3551 -0.5308 -0.6575 -0.6987 -0.6431 -0.5165 -0.3629 -0.1648 0.0632 0.2765 0.4304 0.4977 0.4785 0.3976 0.2929
0.6555 0.6892 0.6425 0.4977 0.2820 0.0449 -0.1594 -0.2870 -0.3146 -0.2464 -0.1168 0.0149 0.0946 0.0915 0.0000 -0.1617 -0.3561 -0.5358 -0.6560 -0.6912 -0.6555 -0.5970 -0.5062 -0.3710 -0.1967 0.0000 0.1967 0.3710 0.5062 0.5970 0.6555 0.7176 0.8183 0.9466 1.0000 1.0000 1.0000 1.0000 0.9459 0.7997 0.6555 0.4998 0.2923 0.0511 -0.1710 -0.3210 -0.3677 -0.3119 -0.1840 -0.0297 0.1168 0.2543 0.3624 0.4048 0.3561 0.2133 -0.0000 -0.2385 -0.4479 -0.5868 -0.6555 -0.7063 -0.7424 -0.7328 -0.6497 -0.4826 -0.2451 0.0277 0.2892 0.5001 0.6555 0.8066 0.9875 1.0000 1.0000 1.0000 1.0000 1.0000 0.9875 0.8066 0.6555 0.5067 0.3339 0.1536 0.0000 -0.0965 -0.1226 -0.0865 -0.0149 0.0593 0.1168 0.1686 0.2213 0.2753 0.3304 0.3861 0.4418 0.4969 0.5509 0.6036 0.6555 0.6958 0.6872 0.6237 0.5271 0.4310 0.3677 0.3593 0.4129 0.5192 0.6555 0.7782 0.8117 0.7232 0.5271 0.2694 0.0116 -0.1845 -0.2730 -0.2395 -0.1168 0.0126 0.0842 0.0769 0.0000 -0.1168 -0.2335 -0.3104 -0.3177 -0.2461 -0.1168 0.0079 0.0530 -0.0110 -0.1710 -0.3861 -0.6012 -0.7613 -0.8252 -0.7802 -0.6555 -0.5047 -0.3204 -0.1155 0.0741 0.2133 0.2820 0.2819 0.2348 0.1722
0.7071 0.6902 0.6006 0.4304 0.2133 0.0000 -0.1617 -0.2398 -0.2255 -0.1342 0.0000 0.1342 0.2255 0.2398 0.1617 0.0000 -0.2133 -0.4304 -0.6006 -0.6902 -0.7071 -0.6950 -0.6252 -0.4765 -0.2582 0.0000 0.2582 0.4765 0.6252 0.6950 0.7071 0.7180 0.7726 0.8685 0.9765 1.0000 1.0000 1.0000 0.9736 0.8473 0.7071 0.5499 0.3342 0.0753 -0.1728 -0.3536 -0.4310 -0.4012 -0.2910 -0.1451 0.0000 0.1342 0.2255 0.2398 0.1617 0.0000 -0.2133 -0.4304 -0.6006 -0.6902 -0.7071 -0.7059 -0.6907 -0.6379 -0.5275 -0.3536 -0.1279 0.1214 0.3587 0.5548 0.7071 0.8582 1.0000 1.0000 1.0000 1.0000 1.0000 1.0000 1.0000 0.8582 0.7071 0.5608 0.3997 0.2367 0.0965 0.0000 -0.0449 -0.0461 -0.0246 -0.0048 0.0000 0.0061 0.0410 0.1153 0.2245 0.3536 0.4826 0.5918 0.6662 0.7011 0.7071 0.6962 0.6416 0.5457 0.4378 0.3536 0.3210 0.3520 0.4406 0.5669 0.7071 0.8304 0.8671 0.7854 0.5994 0.3536 0.1077 -0.0783 -0.1600 -0.1233 0.0000 0.1293 0.2009 0.1936 0.1168 0.0000 -0.1168 -0.1936 -0.2009 -0.1293 0.0000 0.1233 0.1600 0.0783 -0.1077 -0.3536 -0.5994 -0.7854 -0.8671 -0.8304 -0.7071 -0.5608 -0.3997 -0.2367 -0.0965 0.0000 0.0449 0.0461 0.0246 0.0048
0.6555 0.5888 0.4614 0.2765 0.0741 -0.0965 -0.1967 -0.2094 -0.1424 -0.0228 0.1168 0.2543 0.3624 0.4048 0.3561 0.2133 -0.0000 -0.2385 -0.4479 -0.5868 -0.6555 -0.6915 -0.6529 -0.5124 -0.2820 0.0000 0.2820 0.5124 0.6529 0.6915 0.6555 0.6152 0.6237 0.6873 0.7838 0.8799 0.9432 0.9516 0.8980 0.7917 0.6555 0.4978 0.2788 0.0130 -0.2451 -0.4378 -0.5271 -0.5073 -0.4040 -0.2613 -0.1168 0.0149 0.0946 0.0915 -0.0000 -0.1617 -0.3561 -0.5358 -0.6560 -0.6912 -0.6555 -0.6040 -0.5478 -0.4735 -0.3677 -0.2245 -0.0484 0.1456 0.3370 0.5080 0.6555 0.8066 0.9875 1.0000 1.0000 1.0000 1.0000 1.0000 0.9875 0.8066 0.6555 0.5126 0.3682 0.2334 0.1226 0.0449 0.0000 -0.0226 -0.0403 -0.0698 -0.1168 -0.1574 -0.1454 -0.0615 0.0857 0.2694 0.4530 0.6002 0.6841 0.6961 0.6555 0.5934 0.4927 0.3644 0.2451 0.1728 0.1710 0.2415 0.3651 0.5113 0.6555 0.7802 0.8252 0.7613 0.6012 0.3861 0.1710 0.0110 -0.0530 -0.0079 0.1168 0.2461 0.3177 0.3104 0.2335 0.1168 -0.0000 -0.0769 -0.0842 -0.0126 0.1168 0.2395 0.2730 0.1845 -0.0116 -0.2694 -0.5271 -0.7232 -0.8117 -0.7782 -0.6555 -0.5146 -0.3817 -0.2715 -0.1967 -0.1617 -0.1594 -0.1728 -0.1797 -0.1617
0.5165 0.4084 0.2527 0.0632 -0.1155 -0.2367 -0.2715 -0.2176 -0.0983 0.0488 0.1936 0.3351 0.4631 0.5417 0.5358 0.4304 0.2385 0.0000 -0.2303 -0.4051 -0.5165 -0.5948 -0.5921 -0.4785 -0.2673 0.0000 0.2673 0.4785 0.5921 0.5948 0.5165 0.4329 0.4025 0.4387 0.5257 0.6318 0.7211 0.7628 0.7388 0.6494 0.5165 0.3593 0.1434 -0.1158 -0.3644 -0.5457 -0.6237 -0.5943 -0.4845 -0.3387 -0.1936 -0.0635 0.0100 -0.0000 -0.0915 -0.2398 -0.4048 -0.5417 -0.6118 -0.5973 -0.5165 -0.4241 -0.3427 -0.2702 -0.1978 -0.1153 -0.0160 0.1018 0.2344 0.3748 0.5165 0.6676 0.8485 1.0000 1.0000 1.0000 1.0000 1.0000 0.8485 0.6676 0.5165 0.3776 0.2531 0.1544 0.0865 0.0461 0.0226 0.0000 -0.0385 -0.1040 -0.1936 -0.2747 -0.2879 -0.2083 -0.0469 0.1614 0.3698 0.5312 0.6108 0.5976 0.5165 0.4111 0.2714 0.1158 -0.0130 -0.0753 -0.0511 0.0527 0.2059 0.3690 0.5165 0.6431 0.6987 0.6575 0.5308 0.3551 0.1794 0.0527 0.0114 0.0671 0.1936 0.3229 0.3946 0.3873 0.3104 0.1936 0.0769 0.0000 -0.0073 0.0643 0.1936 0.3169 0.3534 0.2715 0.0850 -0.1614 -0.4078 -0.5943 -0.6763 -0.6398 -0.5165 -0.3809 -0.2755 -0.2176 -0.2094 -0.2398 -0.2870 -0.3241 -0.3264 -0.2800
0.3320 0.1960 0.0233 -0.1648 -0.3204 -0.3997 -0.3817 -0.2755 -0.1159 0.0522 0.2009 0.3462 0.4945 0.6118 0.6560 0.6006 0.4479 0.2303 0.0000 -0.1926 -0.3320 -0.4406 -0.4712 -0.3949 -0.2244 0.0000 0.2244 0.3949 0.4712 0.4406 0.3320 0.2189 0.1619 0.1795 0.2600 0.3729 0.4799 0.5443 0.5405 0.4626 0.3320 0.1763 -0.0309 -0.2714 -0.4927 -0.6416 -0.6872 -0.6305 -0.5021 -0.3475 -0.2009 -0.0715 0.0000 -0.0100 -0.0946 -0.2255 -0.3624 -0.4631 -0.4945 -0.4439 -0.3320 -0.2132 -0.1235 -0.0712 -0.0492 -0.0410 -0.0267 0.0114 0.0850 0.1957 0.3320 0.4831 0.6640 0.8485 0.9875 1.0000 0.9875 0.8485 0.6640 0.4831 0.3320 0.1968 0.0926 0.0327 0.0149 0.0246 0.0403 0.0385 0.0000 -0.0833 -0.2009 -0.3107 -0.3477 -0.2852 -0.1350 0.0655 0.2661 0.4163 0.4788 0.4418 0.3320 0.1971 0.0309 -0.1434 -0.2788 -0.3342 -0.2923 -0.1658 0.0076 0.1821 0.3320 0.4602 0.5253 0.5043 0.4071 0.2665 0.1258 0.0287 0.0076 0.0727 0.2009 0.3302 0.4019 0.3946 0.3177 0.2009 0.0842 0.0073 0.0000 0.0716 0.2009 0.3257 0.3710 0.3077 0.1485 -0.0655 -0.2796 -0.4387 -0.5021 -0.4567 -0.3320 -0.2003 -0.1159 -0.0983 -0.1424 -0.2255 -0.3146 -0.3748 -0.3786 -0.3151
0.1511 0.0022 -0.1776 -0.3629 -0.5047 -0.5608 -0.5146 -0.3809 -0.2003 -0.0214 0.1293 0.2778 0.4439 0.5973 0.6912 0.6902 0.5868 0.4051 0.1926 -0.0000 -0.1511 -0.2756 -0.3311 -0.2921 -0.1699 0.0000 0.1699 0.2921 0.3311 0.2756 0.1511 0.0242 -0.0453 -0.0364 0.0410 0.1572 0.2725 0.3475 0.3532 0.2806 0.1511 -0.0024 -0.1971 -0.4111 -0.5934 -0.6962 -0.6958 -0.6001 -0.4451 -0.2780 -0.1293 0.0000 0.0715 0.0635 -0.0149 -0.1342 -0.2543 -0.3351 -0.3462 -0.2778 -0.1511 -0.0216 0.0628 0.0857 0.0550 -0.0061 -0.0662 -0.0946 -0.0685 0.0190 0.1511 0.3022 0.4831 0.6676 0.8066 0.8582 0.8066 0.6676 0.4831 0.3022 0.1511 0.0192 -0.0672 -0.0910 -0.0593 0.0048 0.0698 0.1040 0.0833 0.0000 -0.1293 -0.2540 -0.3106 -0.2739 -0.1551 0.0109 0.1768 0.2957 0.3324 0.2758 0.1511 0.0024 -0.1763 -0.3593 -0.4978 -0.5499 -0.4998 -0.3626 -0.1798 0.0002 0.1511 0.2802 0.3508 0.3412 0.2609 0.1402 0.0195 -0.0608 -0.0704 0.0002 0.1293 0.2586 0.3302 0.3229 0.2461 0.1293 0.0126 -0.0643 -0.0716 0.0000 0.1293 0.2562 0.3140 0.2772 0.1571 -0.0109 -0.1788 -0.2990 -0.3358 -0.2780 -0.1511 -0.0214 0.0522 0.0488 -0.0228 -0.1342 -0.2464 -0.3204 -0.3269 -0.2564
0.0000 -0.1511 -0.3320 -0.5165 -0.6555 -0.7071 -0.6555 -0.5165 -0.3320 -0.1511 0.0000 0.1511 0.3320 0.5165 0.6555 0.7071 0.6555 0.5165 0.3320 0.1511 0.0000 -0.1293 -0.2009 -0.1936 -0.1168 0.0000 0.1168 0.1936 0.2009 0.1293 0.0000 -0.1293 -0.2009 -0.1936 -0.1168 0.0000 0.1168 0.1936 0.2009 0.1293 0.0000 -0.1511 -0.3320 -0.5165 -0.6555 -0.7071 -0.6555 -0.5165 -0.3320 -0.1511 0.0000 0.1293 0.2009 0.1936 0.1168 0.0000 -0.1168 -0.1936 -0.2009 -0.1293 0.0000 0.1293 0.2009 0.1936 0.1168 0.0000 -0.1168 -0.1936 -0.2009 -0.1293 0.0000 0.1511 0.3320 0.5165 0.6555 0.7071 0.6555 0.5165 0.3320 0.1511 0.0000 -0.1293 -0.2009 -0.1936 -0.1168 0.0000 0.1168 0.1936 0.2009 0.1293 0.0000 -0.1293 -0.2009 -0.1936 -0.1168 0.0000 0.1168 0.1936 0.2009 0.1293 0.0000 -0.1511 -0.3320 -0.5165 -0.6555 -0.7071 -0.6555 -0.5165 -0.3320 -0.1511 0.0000 0.1293 0.2009 0.1936 0.1168 0.0000 -0.1168 -0.1936 -0.2009 -0.1293 0.0000 0.1293 0.2009 0.1936 0.1168 0.0000 -0.1168 -0.1936 -0.2009 -0.1293 0.0000 0.1293 0.2009 0.1936 0.1168 0.0000 -0.1168 -0.1936 -0.2009 -0.1293 0.0000 0.1293 0.2009 0.1936 0.1168 0.0000 -0.1168 -0.1936 -0.2009 -0.1293
-0.1293 -0.2778 -0.4556 -0.6370 -0.7736 -0.8243 -0.7736 -0.6370 -0.4556 -0.2778 -0.1293 0.0218 0.2144 0.4269 0.6086 0.7119 0.7129 0.6191 0.4657 0.2996 0.1511 0.0190 -0.0685 -0.0946 -0.0662 -0.0061 0.0550 0.0857 0.0628 -0.0216 -0.1511 -0.2782 -0.3486 -0.3414 -0.2659 -0.1511 -0.0363 0.0392 0.0464 -0.0240 -0.1511 -0.2974 -0.4623 -0.6158 -0.7109 -0.7119 -0.6106 -0.4302 -0.2178 -0.0240 0.1293 0.2588 0.3314 0.3257 0.2507 0.1354 0.0192 -0.0582 -0.0671 0.0024 0.1293 0.2542 0.3118 0.2775 0.1620 0.0000 -0.1620 -0.2775 -0.3118 -0.2542 -0.1293 0.0190 0.1957 0.3748 0.5080 0.5548 0.5001 0.3601 0.1765 -0.0024 -0.1511 -0.2758 -0.3324 -0.2957 -0.1768 -0.0109 0.1551 0.2739 0.3106 0.2540 0.1293 0.0002 -0.0820 -0.1004 -0.0629 0.0061 0.0742 0.1093 0.0877 0.0024 -0.1293 -0.2804 -0.4613 -0.6458 -0.7848 -0.8364 -0.7848 -0.6458 -0.4613 -0.2804 -0.1293 0.0000 0.0716 0.0643 -0.0126 -0.1293 -0.2461 -0.3229 -0.3302 -0.2586 -0.1293 -0.0002 0.0704 0.0608 -0.0195 -0.1402 -0.2609 -0.3412 -0.3508 -0.2802 -0.1511 -0.0192 0.0672 0.0910 0.0593 -0.0048 -0.0698 -0.1040 -0.0833 0.0000 0.1293 0.2566 0.3281 0.3232 0.2510 0.1402 0.0294 -0.0428 -0.0476 0.0238
-0.2009 -0.3345 -0.4945 -0.6576 -0.7805 -0.8261 -0.7805 -0.6576 -0.4945 -0.3345 -0.2009 -0.0615 0.1311 0.3614 0.5790 0.7317 0.7871 0.7429 0.6255 0.4773 0.3320 0.1957 0.0850 0.0114 -0.0267 -0.0410 -0.0492 -0.0712 -0.1235 -0.2132 -0.3320 -0.4463 -0.5096 -0.5032 -0.4352 -0.3320 -0.2288 -0.1608 -0.1543 -0.2177 -0.3320 -0.4623 -0.6022 -0.7205 -0.7736 -0.7317 -0.5925 -0.3838 -0.1543 0.0465 0.2009 0.3315 0.4095 0.4133 0.3489 0.2419 0.1289 0.0484 0.0309 0.0879 0.2009 0.3118 0.3553 0.3066 0.1766 0.0000 -0.1766 -0.3066 -0.3553 -0.3118 -0.2009 -0.0685 0.0850 0.2344 0.3370 0.3587 0.2892 0.1461 -0.0309 -0.1973 -0.3320 -0.4418 -0.4788 -0.4163 -0.2661 -0.0655 0.1350 0.2852 0.3477 0.3107 0.2009 0.0844 0.0076 -0.0171 0.0013 0.0410 0.0746 0.0769 0.0309 -0.0669 -0.2009 -0.3520 -0.5329 -0.7174 -0.8564 -0.9080 -0.8564 -0.7174 -0.5329 -0.3520 -0.2009 -0.0716 0.0000 -0.0073 -0.0842 -0.2009 -0.3177 -0.3946 -0.4019 -0.3302 -0.2009 -0.0727 -0.0076 -0.0287 -0.1258 -0.2665 -0.4071 -0.5043 -0.5253 -0.4602 -0.3320 -0.1968 -0.0926 -0.0327 -0.0149 -0.0246 -0.0403 -0.0385 0.0000 0.0833 0.2009 0.3164 0.3862 0.3935 0.3458 0.2665 0.1872 0.1394 0.1467 0.2165
-0.1936 -0.2955 -0.4173 -0.5417 -0.6353 -0.6701 -0.6353 -0.5417 -0.4173 -0.2955 -0.1936 -0.0822 0.0926 0.3229 0.5613 0.7532 0.8587 0.8646 0.7860 0.6580 0.5165 0.3748 0.2344 0.1018 -0.0160 -0.1153 -0.1978 -0.2702 -0.3427 -0.4241 -0.5165 -0.6037 -0.6519 -0.6470 -0.5952 -0.5165 -0.4378 -0.3860 -0.3811 -0.4294 -0.5165 -0.6158 -0.7205 -0.8014 -0.8206 -0.7532 -0.5994 -0.3860 -0.1581 0.0400 0.1936 0.3265 0.4159 0.4399 0.3982 0.3089 0.2028 0.1158 0.0796 0.1100 0.1936 0.2775 0.3066 0.2610 0.1494 0.0000 -0.1494 -0.2610 -0.3066 -0.2775 -0.1936 -0.0946 0.0114 0.1018 0.1456 0.1214 0.0277 -0.1158 -0.2741 -0.4119 -0.5165 -0.5976 -0.6108 -0.5312 -0.3698 -0.1614 0.0469 0.2083 0.2879 0.2747 0.1936 0.1067 0.0572 0.0527 0.0799 0.1153 0.1339 0.1158 0.0511 -0.0574 -0.1936 -0.3447 -0.5256 -0.7102 -0.8491 -0.9007 -0.8491 -0.7102 -0.5256 -0.3447 -0.1936 -0.0643 0.0073 0.0000 -0.0769 -0.1936 -0.3104 -0.3873 -0.3946 -0.3229 -0.1936 -0.0671 -0.0114 -0.0527 -0.1794 -0.3551 -0.5308 -0.6575 -0.6987 -0.6431 -0.5165 -0.3776 -0.2531 -0.1544 -0.0865 -0.0461 -0.0226 0.0000 0.0385 0.1040 0.1936 0.2835 0.3477 0.3768 0.3748 0.3551 0.3353 0.3334 0.3624 0.4266
-0.1168 -0.1719 -0.2380 -0.3053 -0.3561 -0.3749 -0.3561 -0.3053 -0.2380 -0.1719 -0.1168 -0.0481 0.0908 0.3003 0.5387 0.7520 0.8948 0.9436 0.9011 0.7930 0.6555 0.5080 0.3370 0.1456 -0.0484 -0.2245 -0.3677 -0.4735 -0.5478 -0.6040 -0.6555 -0.7027 -0.7288 -0.7262 -0.6981 -0.6555 -0.6128 -0.5848 -0.5821 -0.6083 -0.6555 -0.7109 -0.7736 -0.8206 -0.8207 -0.7520 -0.6128 -0.4232 -0.2184 -0.0340 0.1168 0.2530 0.3593 0.4129 0.4045 0.3412 0.2451 0.1486 0.0850 0.0765 0.1168 0.1620 0.1766 0.1494 0.0853 0.0000 -0.0853 -0.1494 -0.1766 -0.1620 -0.1168 -0.0662 -0.0267 -0.0160 -0.0484 -0.1279 -0.2451 -0.3790 -0.5031 -0.5957 -0.6555 -0.6961 -0.6841 -0.6002 -0.4530 -0.2694 -0.0857 0.0615 0.1454 0.1574 0.1168 0.0745 0.0715 0.1105 0.1710 0.2245 0.2451 0.2175 0.1393 0.0215 -0.1168 -0.2679 -0.4487 -0.6333 -0.7722 -0.8239 -0.7722 -0.6333 -0.4487 -0.2679 -0.1168 0.0126 0.0842 0.0769 0.0000 -0.1168 -0.2335 -0.3104 -0.3177 -0.2461 -0.1168 0.0079 0.0530 -0.0110 -0.1710 -0.3861 -0.6012 -0.7613 -0.8252 -0.7802 -0.6555 -0.5126 -0.3682 -0.2334 -0.1226 -0.0449 0.0000 0.0226 0.0403 0.0698 0.1168 0.1686 0.2213 0.2753 0.3304 0.3861 0.4418 0.4969 0.5509 0.6036
0.0000 0.0000 0.0000 0.0000 0.0000 0.0000 0.0000 0.0000 0.0000 0.0000 0.0000 0.0169 0.1065 0.2768 0.4938 0.7071 0.8688 0.9469 0.9326 0.8413 0.7071 0.5548 0.3587 0.1214 -0.1279 -0.3536 -0.5275 -0.6379 -0.6907 -0.7059 -0.7071 -0.7071 -0.7071 -0.7071 -0.7071 -0.7071 -0.7071 -0.7071 -0.7071 -0.7071 -0.7071 -0.7119 -0.7317 -0.7532 -0.7520 -0.7071 -0.6106 -0.4704 -0.3074 -0.1463 0.0000 0.1402 0.2665 0.3551 0.3861 0.3536 0.2694 0.1614 0.0655 0.0109 0.0000 0.0000 -0.0000 0.0000 0.0000 0.0000 0.0000 0.0000 0.0000 0.0000 0.0000 -0.0061 -0.0410 -0.1153 -0.2245 -0.3536 -0.4826 -0.5918 -0.6662 -0.7011 -0.7071 -0.7011 -0.6662 -0.5918 -0.4826 -0.3536 -0.2245 -0.1153 -0.0410 -0.0061 0.0000 0.0109 0.0655 0.1614 0.2694 0.3536 0.3861 0.3551 0.2665 0.1402 0.0000 -0.1511 -0.3320 -0.5165 -0.6555 -0.7071 -0.6555 -0.5165 -0.3320 -0.1511 0.0000 0.1293 0.2009 0.1936 0.1168 0.0000 -0.1168 -0.1936 -0.2009 -0.1293 0.0000 0.1233 0.1600 0.0783 -0.1077 -0.3536 -0.5994 -0.7854 -0.8671 -0.8304 -0.7071 -0.5608 -0.3997 -0.2367 -0.0965 0.0000 0.0449 0.0461 0.0246 0.0048 0.0000 0.0061 0.0410 0.1153 0.2245 0.3536 0.4826 0.5918 0.6662 0.7011
0.1168 0.1719 0.2380 0.3053 0.3561 0.3749 0.3561 0.3053 0.2380 0.1719 0.1168 0.0811 0.1162 0.2364 0.4161 0.6106 0.7722 0.8637 0.8668 0.7871 0.6555 0.5001 0.2892 0.0277 -0.2451 -0.4826 -0.6497 -0.7328 -0.7424 -0.7063 -0.6555 -0.6083 -0.5821 -0.5848 -0.6128 -0.6555 -0.6981 -0.7262 -0.7288 -0.7027 -0.6555 -0.6106 -0.5925 -0.5994 -0.6128 -0.6106 -0.5755 -0.5007 -0.3905 -0.2576 -0.1168 0.0274 0.1736 0.2973 0.3677 0.3659 0.2936 0.1743 0.0461 -0.0547 -0.1168 -0.1620 -0.1766 -0.1494 -0.0853 0.0000 0.0853 0.1494 0.1766 0.1620 0.1168 0.0550 -0.0492 -0.1978 -0.3677 -0.5275 -0.6497 -0.7181 -0.7320 -0.7040 -0.6555 -0.6036 -0.5509 -0.4969 -0.4418 -0.3861 -0.3304 -0.2753 -0.2213 -0.1686 -0.1168 -0.0527 0.0596 0.2124 0.3677 0.4826 0.5271 0.4927 0.3936 0.2589 0.1168 -0.0343 -0.2152 -0.3998 -0.5387 -0.5903 -0.5387 -0.3998 -0.2152 -0.0343 0.1168 0.2461 0.3177 0.3104 0.2335 0.1168 0.0000 -0.0769 -0.0842 -0.0126 0.1168 0.2395 0.2730 0.1845 -0.0116 -0.2694 -0.5271 -0.7232 -0.8117 -0.7782 -0.6555 -0.5067 -0.3339 -0.1536 0.0000 0.0965 0.1226 0.0865 0.0149 -0.0593 -0.1168 -0.1574 -0.1454 -0.0615 0.0857 0.2694 0.4530 0.6002 0.6841 0.6961
0.1936 0.2955 0.4173 0.5417 0.6353 0.6701 0.6353 0.5417 0.4173 0.2955 0.1936 0.1128 0.0983 0.1685 0.3053 0.4704 0.6186 0.7102 0.7201 0.6466 0.5165 0.3601 0.1461 -0.1158 -0.3790 -0.5918 -0.7181 -0.7488 -0.7018 -0.6130 -0.5165 -0.4294 -0.3811 -0.3860 -0.4378 -0.5165 -0.5952 -0.6470 -0.6519 -0.6037 -0.5165 -0.4302 -0.3838 -0.3860 -0.4232 -0.4704 -0.5007 -0.4926 -0.4346 -0.3293 -0.1936 -0.0461 0.1170 0.2702 0.3740 0.3982 0.3359 0.2071 0.0514 -0.0883 -0.1936 -0.2775 -0.3066 -0.2610 -0.1494 0.0000 0.1494 0.2610 0.3066 0.2775 0.1936 0.0857 -0.0712 -0.2702 -0.4735 -0.6379 -0.7328 -0.7488 -0.6991 -0.6123 -0.5165 -0.4266 -0.3624 -0.3334 -0.3353 -0.3551 -0.3748 -0.3768 -0.3477 -0.2835 -0.1936 -0.0849 0.0739 0.2702 0.4588 0.5918 0.6383 0.5943 0.4818 0.3379 0.1936 0.0425 -0.1384 -0.3229 -0.4618 -0.5135 -0.4618 -0.3229 -0.1384 0.0425 0.1936 0.3229 0.3946 0.3873 0.3104 0.1936 0.0769 0.0000 -0.0073 0.0643 0.1936 0.3169 0.3534 0.2715 0.0850 -0.1614 -0.4078 -0.5943 -0.6763 -0.6398 -0.5165 -0.3662 -0.1872 0.0000 0.1536 0.2367 0.2334 0.1544 0.0327 -0.0910 -0.1936 -0.2747 -0.2879 -0.2083 -0.0469 0.1614 0.3698 0.5312 0.6108 0.5976
0.2009 0.3345 0.4945 0.6576 0.7805 0.8261 0.7805 0.6576 0.4945 0.3345 0.2009 0.0890 0.0385 0.0698 0.1705 0.3074 0.4383 0.5230 0.5329 0.4614 0.3320 0.1765 -0.0309 -0.2741 -0.5031 -0.6662 -0.7320 -0.6991 -0.5947 -0.4612 -0.3320 -0.2177 -0.1543 -0.1608 -0.2288 -0.3320 -0.4352 -0.5032 -0.5096 -0.4463 -0.3320 -0.2178 -0.1543 -0.1581 -0.2184 -0.3074 -0.3905 -0.4346 -0.4170 -0.3326 -0.2009 -0.0511 0.1235 0.2969 0.4233 0.4652 0.4098 0.2745 0.1002 -0.0661 -0.2009 -0.3118 -0.3553 -0.3066 -0.1766 0.0000 0.1766 0.3066 0.3553 0.3118 0.2009 0.0628 -0.1235 -0.3427 -0.5478 -0.6907 -0.7424 -0.7018 -0.5947 -0.4610 -0.3320 -0.2165 -0.1467 -0.1394 -0.1872 -0.2665 -0.3458 -0.3935 -0.3862 -0.3164 -0.2009 -0.0626 0.1235 0.3400 0.5374 0.6662 0.6976 0.6332 0.5021 0.3473 0.2009 0.0498 -0.1311 -0.3156 -0.4545 -0.5062 -0.4545 -0.3156 -0.1311 0.0498 0.2009 0.3302 0.4019 0.3946 0.3177 0.2009 0.0842 0.0073 0.0000 0.0716 0.2009 0.3257 0.3710 0.3077 0.1485 -0.0655 -0.2796 -0.4387 -0.5021 -0.4567 -0.3320 -0.1810 0.0000 0.1872 0.3339 0.3997 0.3682 0.2531 0.0926 -0.0672 -0.2009 -0.3107 -0.3477 -0.2852 -0.1350 0.0655 0.2661 0.4163 0.4788 0.4418
0.1293 0.2778 0.4556 0.6370 0.7736 0.8243 0.7736 0.6370 0.4556 0.2778 0.1293 0.0026 -0.0658 -0.0547 0.0261 0.1463 0.2656 0.3440 0.3519 0.2804 0.1511 -0.0024 -0.1973 -0.4119 -0.5957 -0.7011 -0.7040 -0.6123 -0.4610 -0.2972 -0.1511 -0.0240 0.0464 0.0392 -0.0363 -0.1511 -0.2659 -0.3414 -0.3486 -0.2782 -0.1511 -0.0240 0.0465 0.0400 -0.0340 -0.1463 -0.2576 -0.3293 -0.3326 -0.2590 -0.1293 0.0216 0.2016 0.3844 0.5215 0.5717 0.5195 0.3811 0.1981 0.0194 -0.1293 -0.2542 -0.3118 -0.2775 -0.1620 0.0000 0.1620 0.2775 0.3118 0.2542 0.1293 -0.0216 -0.2132 -0.4241 -0.6040 -0.7059 -0.7063 -0.6130 -0.4612 -0.2972 -0.1511 -0.0238 0.0476 0.0428 -0.0294 -0.1402 -0.2510 -0.3232 -0.3281 -0.2566 -0.1293 0.0216 0.2131 0.4233 0.6016 0.7011 0.6981 0.6009 0.4452 0.2780 0.1293 -0.0218 -0.2027 -0.3872 -0.5262 -0.5778 -0.5262 -0.3872 -0.2027 -0.0218 0.1293 0.2586 0.3302 0.3229 0.2461 0.1293 0.0126 -0.0643 -0.0716 0.0000 0.1293 0.2562 0.3140 0.2772 0.1571 -0.0109 -0.1788 -0.2990 -0.3358 -0.2780 -0.1511 0.0000 0.1810 0.3662 0.5067 0.5608 0.5126 0.3776 0.1968 0.0192 -0.1293 -0.2540 -0.3106 -0.2739 -0.1551 0.0109 0.1768 0.2957 0.3324 0.2758
0.0000 0.1511 0.3320 0.5165 0.6555 0.7071 0.6555 0.5165 0.3320 0.1511 0.0000 -0.1293 -0.2009 -0.1936 -0.1168 0.0000 0.1168 0.1936 0.2009 0.1293 0.0000 -0.1511 -0.3320 -0.5165 -0.6555 -0.7071 -0.6555 -0.5165 -0.3320 -0.1511 0.0000 0.1293 0.2009 0.1936 0.1168 0.0000 -0.1168 -0.1936 -0.2009 -0.1293 0.0000 0.1293 0.2009 0.1936 0.1168 0.0000 -0.1168 -0.1936 -0.2009 -0.1293 0.0000 0.1511 0.3320 0.5165 0.6555 0.7071 0.6555 0.5165 0.3320 0.1511 0.0000 -0.1293 -0.2009 -0.1936 -0.1168 0.0000 0.1168 0.1936 0.2009 0.1293 0.0000 -0.1511 -0.3320 -0.5165 -0.6555 -0.7071 -0.6555 -0.5165 -0.3320 -0.1511 0.0000 0.1293 0.2009 0.1936 0.1168 0.0000 -0.1168 -0.1936 -0.2009 -0.1293 0.0000 0.1511 0.3320 0.5165 0.6555 0.7071 0.6555 0.5165 0.3320 0.1511 0.0000 -0.1511 -0.3320 -0.5165 -0.6555 -0.7071 -0.6555 -0.5165 -0.3320 -0.1511 0.0000 0.1293 0.2009 0.1936 0.1168 0.0000 -0.1168 -0.1936 -0.2009 -0.1293 0.0000 0.1293 0.2009 0.1936 0.1168 0.0000 -0.1168 -0.1936 -0.2009 -0.1293 0.0000 0.1511 0.3320 0.5165 0.6555 0.7071 0.6555 0.5165 0.3320 0.1511 0.0000 -0.1293 -0.2009 -0.1936 -0.1168 0.0000 0.1168 0.1936 0.2009 0.1293
-0.1293 0.0192 0.1968 0.3776 0.5126 0.5608 0.5067 0.3662 0.1810 -0.0000 -0.1511 -0.2804 -0.3519 -0.3440 -0.2656 -0.1463 -0.0261 0.0547 0.0658 -0.0026 -0.1293 -0.2756 -0.4406 -0.5948 -0.6915 -0.6950 -0.5970 -0.4205 -0.2120 -0.0214 0.1293 0.2566 0.3281 0.3232 0.2510 0.1402 0.0294 -0.0428 -0.0476 0.0238 0.1511 0.2780 0.3473 0.3379 0.2589 0.1402 0.0215 -0.0574 -0.0669 0.0024 0.1293 0.2778 0.4556 0.6370 0.7736 0.8243 0.7736 0.6370 0.4556 0.2778 0.1293 -0.0002 -0.0844 -0.1067 -0.0745 -0.0109 0.0527 0.0849 0.0626 -0.0216 -0.1511 -0.2972 -0.4610 -0.6123 -0.7040 -0.7011 -0.5957 -0.4119 -0.1973 -0.0024 0.1511 0.2802 0.3508 0.3412 0.2609 0.1402 0.0195 -0.0608 -0.0704 0.0002 0.1293 0.2780 0.4452 0.6009 0.6981 0.7011 0.6016 0.4233 0.2131 0.0216 -0.1293 -0.2780 -0.4567 -0.6398 -0.7782 -0.8304 -0.7802 -0.6431 -0.4602 -0.2802 -0.1293 0.0000 0.0715 0.0635 -0.0149 -0.1342 -0.2543 -0.3351 -0.3462 -0.2778 -0.1511 -0.0216 0.0628 0.0857 0.0550 -0.0061 -0.0662 -0.0946 -0.0685 0.0190 0.1511 0.3022 0.4831 0.6676 0.8066 0.8582 0.8066 0.6676 0.4831 0.3022 0.1511 0.0190 -0.0685 -0.0946 -0.0662 -0.0061 0.0550 0.0857 0.0628 -0.0216
-0.2009 -0.0672 0.0926 0.2531 0.3682 0.3997 0.3339 0.1872 -0.0000 -0.1810 -0.3320 -0.4614 -0.5329 -0.5230 -0.4383 -0.3074 -0.1705 -0.0698 -0.0385 -0.0890 -0.2009 -0.3311 -0.4712 -0.5921 -0.6529 -0.6252 -0.5062 -0.3213 -0.1159 0.0639 0.2009 0.3164 0.3862 0.3935 0.3458 0.2665 0.1872 0.1394 0.1467 0.2165 0.3320 0.4452 0.5021 0.4818 0.3936 0.2665 0.1393 0.0511 0.0309 0.0877 0.2009 0.3345 0.4945 0.6576 0.7805 0.8261 0.7805 0.6576 0.4945 0.3345 0.2009 0.0820 -0.0076 -0.0572 -0.0715 -0.0655 -0.0596 -0.0739 -0.1235 -0.2131 -0.3320 -0.4612 -0.5947 -0.6991 -0.7320 -0.6662 -0.5031 -0.2741 -0.0309 0.1765 0.3320 0.4602 0.5253 0.5043 0.4071 0.2665 0.1258 0.0287 0.0076 0.0727 0.2009 0.3473 0.5021 0.6332 0.6976 0.6662 0.5374 0.3400 0.1235 -0.0626 -0.2009 -0.3358 -0.5021 -0.6763 -0.8117 -0.8671 -0.8252 -0.6987 -0.5253 -0.3508 -0.2009 -0.0715 0.0000 -0.0100 -0.0946 -0.2255 -0.3624 -0.4631 -0.4945 -0.4439 -0.3320 -0.2132 -0.1235 -0.0712 -0.0492 -0.0410 -0.0267 0.0114 0.0850 0.1957 0.3320 0.4831 0.6640 0.8485 0.9875 1.0000 0.9875 0.8485 0.6640 0.4831 0.3320 0.1957 0.0850 0.0114 -0.0267 -0.0410 -0.0492 -0.0712 -0.1235 -0.2132
-0.1936 -0.0910 0.0327 0.1544 0.2334 0.2367 0.1536 -0.0000 -0.1872 -0.3662 -0.5165 -0.6466 -0.7201 -0.7102 -0.6186 -0.4704 -0.3053 -0.1685 -0.0983 -0.1128 -0.1936 -0.2921 -0.3949 -0.4785 -0.5124 -0.4765 -0.3710 -0.2176 -0.0525 0.0885 0.1936 0.2835 0.3477 0.3768 0.3748 0.3551 0.3353 0.3334 0.3624 0.4266 0.5165 0.6009 0.6332 0.5943 0.4927 0.3551 0.2175 0.1158 0.0769 0.1093 0.1936 0.2955 0.4173 0.5417 0.6353 0.6701 0.6353 0.5417 0.4173 0.2955 0.1936 0.1004 0.0171 -0.0527 -0.1105 -0.1614 -0.2124 -0.2702 -0.3400 -0.4233 -0.5165 -0.6130 -0.7018 -0.7488 -0.7181 -0.5918 -0.3790 -0.1158 0.1461 0.3601 0.5165 0.6431 0.6987 0.6575 0.5308 0.3551 0.1794 0.0527 0.0114 0.0671 0.1936 0.3379 0.4818 0.5943 0.6383 0.5918 0.4588 0.2702 0.0739 -0.0849 -0.1936 -0.2990 -0.4387 -0.5943 -0.7232 -0.7854 -0.7613 -0.6575 -0.5043 -0.3412 -0.1936 -0.0635 0.0100 0.0000 -0.0915 -0.2398 -0.4048 -0.5417 -0.6118 -0.5973 -0.5165 -0.4241 -0.3427 -0.2702 -0.1978 -0.1153 -0.0160 0.1018 0.2344 0.3748 0.5165 0.6676 0.8485 1.0000 1.0000 1.0000 1.0000 1.0000 0.8485 0.6676 0.5165 0.3748 0.2344 0.1018 -0.0160 -0.1153 -0.1978 -0.2702 -0.3427 -0.4241
-0.1168 -0.0593 0.0149 0.0865 0.1226 0.0965 -0.0000 -0.1536 -0.3339 -0.5067 -0.6555 -0.7871 -0.8668 -0.8637 -0.7722 -0.6106 -0.4161 -0.2364 -0.1162 -0.0811 -0.1168 -0.1699 -0.2244 -0.2673 -0.2820 -0.2582 -0.1967 -0.1099 -0.0180 0.0596 0.1168 0.1686 0.2213 0.2753 0.3304 0.3861 0.4418 0.4969 0.5509 0.6036 0.6555 0.6981 0.6976 0.6383 0.5271 0.3861 0.2451 0.1339 0.0746 0.0742 0.1168 0.1719 0.2380 0.3053 0.3561 0.3749 0.3561 0.3053 0.2380 0.1719 0.1168 0.0629 -0.0013 -0.0799 -0.1710 -0.2694 -0.3677 -0.4588 -0.5374 -0.6016 -0.6555 -0.7063 -0.7424 -0.7328 -0.6497 -0.4826 -0.2451 0.0277 0.2892 0.5001 0.6555 0.7802 0.8252 0.7613 0.6012 0.3861 0.1710 0.0110 -0.0530 -0.0079 0.1168 0.2589 0.3936 0.4927 0.5271 0.4826 0.3677 0.2124 0.0596 -0.0527 -0.1168 -0.1788 -0.2796 -0.4078 -0.5271 -0.5994 -0.6012 -0.5308 -0.4071 -0.2609 -0.1168 0.0149 0.0946 0.0915 0.0000 -0.1617 -0.3561 -0.5358 -0.6560 -0.6912 -0.6555 -0.6040 -0.5478 -0.4735 -0.3677 -0.2245 -0.0484 0.1456 0.3370 0.5080 0.6555 0.8066 0.9875 1.0000 1.0000 1.0000 1.0000 1.0000 0.9875 0.8066 0.6555 0.5080 0.3370 0.1456 -0.0484 -0.2245 -0.3677 -0.4735 -0.5478 -0.6040
0.0000 0.0048 0.0246 0.0461 0.0449 0.0000 -0.0965 -0.2367 -0.3997 -0.5608 -0.7071 -0.8413 -0.9326 -0.9469 -0.8688 -0.7071 -0.4938 -0.2768 -0.1065 -0.0169 0.0000 0.0000 0.0000 -0.0000 0.0000 0.0000 0.0000 0.0000 0.0000 0.0000 0.0000 0.0061 0.0410 0.1153 0.2245 0.3536 0.4826 0.5918 0.6662 0.7011 0.7071 0.7011 0.6662 0.5918 0.4826 0.3536 0.2245 0.1153 0.0410 0.0061 0.0000 -0.0000 0.0000 0.0000 -0.0000 0.0000 0.0000 -0.0000 0.0000 0.0000 0.0000 -0.0061 -0.0410 -0.1153 -0.2245 -0.3536 -0.4826 -0.5918 -0.6662 -0.7011 -0.7071 -0.7059 -0.6907 -0.6379 -0.5275 -0.3536 -0.1279 0.1214 0.3587 0.5548 0.7071 0.8304 0.8671 0.7854 0.5994 0.3536 0.1077 -0.0783 -0.1600 -0.1233 0.0000 0.1402 0.2665 0.3551 0.3861 0.3536 0.2694 0.1614 0.0655 0.0109 0.0000 -0.0109 -0.0655 -0.1614 -0.2694 -0.3536 -0.3861 -0.3551 -0.2665 -0.1402 0.0000 0.1342 0.2255 0.2398 0.1617 0.0000 -0.2133 -0.4304 -0.6006 -0.6902 -0.7071 -0.7059 -0.6907 -0.6379 -0.5275 -0.3536 -0.1279 0.1214 0.3587 0.5548 0.7071 0.8582 1.0000 1.0000 1.0000 1.0000 1.0000 1.0000 1.0000 0.8582 0.7071 0.5548 0.3587 0.1214 -0.1279 -0.3536 -0.5275 -0.6379 -0.6907 -0.7059
0.1168 0.0698 0.0403 0.0226 -0.0000 -0.0449 -0.1226 -0.2334 -0.3682 -0.5126 -0.6555 -0.7930 -0.9011 -0.9436 -0.8948 -0.7520 -0.5387 -0.3003 -0.0908 0.0481 0.1168 0.1699 0.2244 0.2673 0.2820 0.2582 0.1967 0.1099 0.0180 -0.0596 -0.1168 -0.1574 -0.1454 -0.0615 0.0857 0.2694 0.4530 0.6002 0.6841 0.6961 0.6555 0.6016 0.5374 0.4588 0.3677 0.2694 0.1710 0.0799 0.0013 -0.0629 -0.1168 -0.1719 -0.2380 -0.3053 -0.3561 -0.3749 -0.3561 -0.3053 -0.2380 -0.1719 -0.1168 -0.0742 -0.0746 -0.1339 -0.2451 -0.3861 -0.5271 -0.6383 -0.6976 -0.6981 -0.6555 -0.6040 -0.5478 -0.4735 -0.3677 -0.2245 -0.0484 0.1456 0.3370 0.5080 0.6555 0.7782 0.8117 0.7232 0.5271 0.2694 0.0116 -0.1845 -0.2730 -0.2395 -0.1168 0.0215 0.1393 0.2175 0.2451 0.2245 0.1710 0.1105 0.0715 0.0745 0.1168 0.1571 0.1485 0.0850 -0.0116 -0.1077 -0.1710 -0.1794 -0.1258 -0.0195 0.1168 0.2543 0.3624 0.4048 0.3561 0.2133 0.0000 -0.2385 -0.4479 -0.5868 -0.6555 -0.7063 -0.7424 -0.7328 -0.6497 -0.4826 -0.2451 0.0277 0.2892 0.5001 0.6555 0.8066 0.9875 1.0000 1.0000 1.0000 1.0000 1.0000 0.9875 0.8066 0.6555 0.5001 0.2892 0.0277 -0.2451 -0.4826 -0.6497 -0.7328 -0.7424 -0.7063
0.1936 0.1040 0.0385 -0.0000 -0.0226 -0.0461 -0.0865 -0.1544 -0.2531 -0.3776 -0.5165 -0.6580 -0.7860 -0.8646 -0.8587 -0.7532 -0.5613 -0.3229 -0.0926 0.0822 0.1936 0.2921 0.3949 0.4785 0.5124 0.4765 0.3710 0.2176 0.0525 -0.0885 -0.1936 -0.2747 -0.2879 -0.2083 -0.0469 0.1614 0.3698 0.5312 0.6108 0.5976 0.5165 0.4233 0.3400 0.2702 0.2124 0.1614 0.1105 0.0527 -0.0171 -0.1004 -0.1936 -0.2955 -0.4173 -0.5417 -0.6353 -0.6701 -0.6353 -0.5417 -0.4173 -0.2955 -0.1936 -0.1093 -0.0769 -0.1158 -0.2175 -0.3551 -0.4927 -0.5943 -0.6332 -0.6009 -0.5165 -0.4241 -0.3427 -0.2702 -0.1978 -0.1153 -0.0160 0.1018 0.2344 0.3748 0.5165 0.6398 0.6763 0.5943 0.4078 0.1614 -0.0850 -0.2715 -0.3534 -0.3169 -0.1936 -0.0574 0.0511 0.1158 0.1339 0.1153 0.0799 0.0527 0.0572 0.1067 0.1936 0.2772 0.3077 0.2715 0.1845 0.0783 -0.0110 -0.0527 -0.0287 0.0608 0.1936 0.3351 0.4631 0.5417 0.5358 0.4304 0.2385 0.0000 -0.2303 -0.4051 -0.5165 -0.6130 -0.7018 -0.7488 -0.7181 -0.5918 -0.3790 -0.1158 0.1461 0.3601 0.5165 0.6676 0.8485 1.0000 1.0000 1.0000 1.0000 1.0000 0.8485 0.6676 0.5165 0.3601 0.1461 -0.1158 -0.3790 -0.5918 -0.7181 -0.7488 -0.7018 -0.6130
0.2009 0.0833 -0.0000 -0.0385 -0.0403 -0.0246 -0.0149 -0.0327 -0.0926 -0.1968 -0.3320 -0.4773 -0.6255 -0.7429 -0.7871 -0.7317 -0.5790 -0.3614 -0.1311 0.0615 0.2009 0.3311 0.4712 0.5921 0.6529 0.6252 0.5062 0.3213 0.1159 -0.0639 -0.2009 -0.3107 -0.3477 -0.2852 -0.1350 0.0655 0.2661 0.4163 0.4788 0.4418 0.3320 0.2131 0.1235 0.0739 0.0596 0.0655 0.0715 0.0572 0.0076 -0.0820 -0.2009 -0.3345 -0.4945 -0.6576 -0.7805 -0.8261 -0.7805 -0.6576 -0.4945 -0.3345 -0.2009 -0.0877 -0.0309 -0.0511 -0.1393 -0.2665 -0.3936 -0.4818 -0.5021 -0.4452 -0.3320 -0.2132 -0.1235 -0.0712 -0.0492 -0.0410 -0.0267 0.0114 0.0850 0.1957 0.3320 0.4567 0.5021 0.4387 0.2796 0.0655 -0.1485 -0.3077 -0.3710 -0.3257 -0.2009 -0.0669 0.0309 0.0769 0.0746 0.0410 0.0013 -0.0171 0.0076 0.0844 0.2009 0.3140 0.3710 0.3534 0.2730 0.1600 0.0530 -0.0114 -0.0076 0.0704 0.2009 0.3462 0.4945 0.6118 0.6560 0.6006 0.4479 0.2303 0.0000 -0.1926 -0.3320 -0.4612 -0.5947 -0.6991 -0.7320 -0.6662 -0.5031 -0.2741 -0.0309 0.1765 0.3320 0.4831 0.6640 0.8485 0.9875 1.0000 0.9875 0.8485 0.6640 0.4831 0.3320 0.1765 -0.0309 -0.2741 -0.5031 -0.6662 -0.7320 -0.6991 -0.5947 -0.4612
0.1293 -0.0000 -0.0833 -0.1040 -0.0698 -0.0048 0.0593 0.0910 0.0672 -0.0192 -0.1511 -0.2996 -0.4657 -0.6191 -0.7129 -0.7119 -0.6086 -0.4269 -0.2144 -0.0218 0.1293 0.2756 0.4406 0.5948 0.6915 0.6950 0.5970 0.4205 0.2120 0.0214 -0.1293 -0.2540 -0.3106 -0.2739 -0.1551 0.0109 0.1768 0.2957 0.3324 0.2758 0.1511 0.0216 -0.0626 -0.0849 -0.0527 0.0109 0.0745 0.1067 0.0844 0.0002 -0.1293 -0.2778 -0.4556 -0.6370 -0.7736 -0.8243 -0.7736 -0.6370 -0.4556 -0.2778 -0.1293 -0.0024 0.0669 0.0574 -0.0215 -0.1402 -0.2589 -0.3379 -0.3473 -0.2780 -0.1511 -0.0216 0.0628 0.0857 0.0550 -0.0061 -0.0662 -0.0946 -0.0685 0.0190 0.1511 0.2780 0.3358 0.2990 0.1788 0.0109 -0.1571 -0.2772 -0.3140 -0.2562 -0.1293 0.0024 0.0877 0.1093 0.0742 0.0061 -0.0629 -0.1004 -0.0820 0.0002 0.1293 0.2562 0.3257 0.3169 0.2395 0.1233 0.0079 -0.0671 -0.0727 -0.0002 0.1293 0.2778 0.4439 0.5973 0.6912 0.6902 0.5868 0.4051 0.1926 0.0000 -0.1511 -0.2972 -0.4610 -0.6123 -0.7040 -0.7011 -0.5957 -0.4119 -0.1973 -0.0024 0.1511 0.3022 0.4831 0.6676 0.8066 0.8582 0.8066 0.6676 0.4831 0.3022 0.1511 -0.0024 -0.1973 -0.4119 -0.5957 -0.7011 -0.7040 -0.6123 -0.4610 -0.2972
0.0000 -0.1293 -0.2009 -0.1936 -0.1168 0.0000 0.1168 0.1936 0.2009 0.1293 0.0000 -0.1511 -0.3320 -0.5165 -0.6555 -0.7071 -0.6555 -0.5165 -0.3320 -0.1511 0.0000 0.1511 0.3320 0.5165 0.6555 0.7071 0.6555 0.5165 0.3320 0.1511 0.0000 -0.1293 -0.2009 -0.1936 -0.1168 0.0000 0.1168 0.1936 0.2009 0.1293 0.0000 -0.1293 -0.2009 -0.1936 -0.1168 0.0000 0.1168 0.1936 0.2009 0.1293 0.0000 -0.1511 -0.3320 -0.5165 -0.6555 -0.7071 -0.6555 -0.5165 -0.3320 -0.1511 0.0000 0.1293 0.2009 0.1936 0.1168 0.0000 -0.1168 -0.1936 -0.2009 -0.1293 0.0000 0.1293 0.2009 0.1936 0.1168 0.0000 -0.1168 -0.1936 -0.2009 -0.1293 0.0000 0.1293 0.2009 0.1936 0.1168 0.0000 -0.1168 -0.1936 -0.2009 -0.1293 0.0000 0.1293 0.2009 0.1936 0.1168 0.0000 -0.1168 -0.1936 -0.2009 -0.1293 0.0000 0.1293 0.2009 0.1936 0.1168 0.0000 -0.1168 -0.1936 -0.2009 -0.1293 0.0000 0.1511 0.3320 0.5165 0.6555 0.7071 0.6555 0.5165 0.3320 0.1511 0.0000 -0.1511 -0.3320 -0.5165 -0.6555 -0.7071 -0.6555 -0.5165 -0.3320 -0.1511 0.0000 0.1511 0.3320 0.5165 0.6555 0.7071 0.6555 0.5165 0.3320 0.1511 0.0000 -0.1511 -0.3320 -0.5165 -0.6555 -0.7071 -0.6555 -0.5165 -0.3320 -0.1511
-0.1293 -0.2564 -0.3151 -0.2800 -0.1617 0.0048 0.1722 0.2929 0.3312 0.2756 0.1511 0.0002 -0.1914 -0.4023 -0.5822 -0.6841 -0.6845 -0.5913 -0.4394 -0.2754 -0.1293 0.0214 0.2120 0.4205 0.5970 0.6950 0.6915 0.5948 0.4406 0.2756 0.1293 0.0000 -0.0833 -0.1040 -0.0698 -0.0048 0.0593 0.0910 0.0672 -0.0192 -0.1511 -0.2782 -0.3369 -0.3018 -0.1835 -0.0169 0.1504 0.2711 0.3094 0.2538 0.1293 -0.0192 -0.1970 -0.3784 -0.5149 -0.5657 -0.5149 -0.3784 -0.1970 -0.0192 0.1293 0.2566 0.3281 0.3232 0.2510 0.1402 0.0294 -0.0428 -0.0476 0.0238 0.1511 0.2756 0.3311 0.2921 0.1699 0.0000 -0.1699 -0.2921 -0.3311 -0.2756 -0.1511 -0.0218 0.0615 0.0822 0.0481 -0.0169 -0.0811 -0.1128 -0.0890 -0.0026 0.1293 0.2566 0.3164 0.2835 0.1686 0.0061 -0.1574 -0.2747 -0.3107 -0.2540 -0.1293 -0.0026 0.0658 0.0547 -0.0261 -0.1463 -0.2656 -0.3440 -0.3519 -0.2804 -0.1511 0.0026 0.1984 0.4147 0.6003 0.7071 0.7106 0.6183 0.4656 0.2996 0.1511 -0.0024 -0.1971 -0.4111 -0.5934 -0.6962 -0.6958 -0.6001 -0.4451 -0.2780 -0.1293 0.0218 0.2027 0.3872 0.5262 0.5778 0.5262 0.3872 0.2027 0.0218 -0.1293 -0.2782 -0.4463 -0.6037 -0.7027 -0.7071 -0.6083 -0.4294 -0.2177 -0.0240
-0.2009 -0.3269 -0.3786 -0.3264 -0.1797 0.0246 0.2348 0.3976 0.4712 0.4405 0.3320 0.1938 0.0076 -0.2116 -0.4167 -0.5597 -0.6113 -0.5707 -0.4636 -0.3300 -0.2009 -0.0639 0.1159 0.3213 0.5062 0.6252 0.6529 0.5921 0.4712 0.3311 0.2009 0.0833 0.0000 -0.0385 -0.0403 -0.0246 -0.0149 -0.0327 -0.0926 -0.1968 -0.3320 -0.4580 -0.5096 -0.4574 -0.3108 -0.1065 0.1038 0.2665 0.3401 0.3094 0.2009 0.0673 -0.0926 -0.2558 -0.3786 -0.4243 -0.3786 -0.2558 -0.0926 0.0673 0.2009 0.3164 0.3862 0.3935 0.3458 0.2665 0.1872 0.1394 0.1467 0.2165 0.3320 0.4406 0.4712 0.3949 0.2244 0.0000 -0.2244 -0.3949 -0.4712 -0.4406 -0.3320 -0.2144 -0.1311 -0.0926 -0.0908 -0.1065 -0.1162 -0.0983 -0.0385 0.0658 0.2009 0.3281 0.3862 0.3477 0.2213 0.0410 -0.1454 -0.2879 -0.3477 -0.3106 -0.2009 -0.0890 -0.0385 -0.0698 -0.1705 -0.3074 -0.4383 -0.5230 -0.5329 -0.4614 -0.3320 -0.1752 0.0385 0.2928 0.5343 0.7071 0.7767 0.7402 0.6255 0.4774 0.3320 0.1763 -0.0309 -0.2714 -0.4927 -0.6416 -0.6872 -0.6305 -0.5021 -0.3475 -0.2009 -0.0498 0.1311 0.3156 0.4545 0.5062 0.4545 0.3156 0.1311 -0.0498 -0.2009 -0.3486 -0.5096 -0.6519 -0.7288 -0.7071 -0.5821 -0.3811 -0.1543 0.0464
-0.1936 -0.3204 -0.3748 -0.3241 -0.1728 0.0461 0.2819 0.4785 0.5894 0.5940 0.5165 0.4086 0.2517 0.0527 -0.1506 -0.3150 -0.4099 -0.4259 -0.3762 -0.2894 -0.1936 -0.0885 0.0525 0.2176 0.3710 0.4765 0.5124 0.4785 0.3949 0.2921 0.1936 0.1040 0.0385 0.0000 -0.0226 -0.0461 -0.0865 -0.1544 -0.2531 -0.3776 -0.5165 -0.6433 -0.6977 -0.6470 -0.4957 -0.2768 -0.0410 0.1556 0.2665 0.2711 0.1936 0.0918 -0.0301 -0.1544 -0.2480 -0.2828 -0.2480 -0.1544 -0.0301 0.0918 0.1936 0.2835 0.3477 0.3768 0.3748 0.3551 0.3353 0.3334 0.3624 0.4266 0.5165 0.5948 0.5921 0.4785 0.2673 0.0000 -0.2673 -0.4785 -0.5921 -0.5948 -0.5165 -0.4269 -0.3614 -0.3229 -0.3003 -0.2768 -0.2364 -0.1685 -0.0698 0.0547 0.1936 0.3232 0.3935 0.3768 0.2753 0.1153 -0.0615 -0.2083 -0.2852 -0.2739 -0.1936 -0.1128 -0.0983 -0.1685 -0.3053 -0.4704 -0.6186 -0.7102 -0.7201 -0.6466 -0.5165 -0.3566 -0.1247 0.1685 0.4669 0.7071 0.8441 0.8646 0.7887 0.6588 0.5165 0.3593 0.1434 -0.1158 -0.3644 -0.5457 -0.6237 -0.5943 -0.4845 -0.3387 -0.1936 -0.0425 0.1384 0.3229 0.4618 0.5135 0.4618 0.3229 0.1384 -0.0425 -0.1936 -0.3414 -0.5032 -0.6470 -0.7262 -0.7071 -0.5848 -0.3860 -0.1608 0.0392
-0.1168 -0.2464 -0.3146 -0.2870 -0.1594 0.0449 0.2820 0.4977 0.6425 0.6892 0.6555 0.5937 0.4895 0.3409 0.1710 0.0112 -0.1109 -0.1794 -0.1932 -0.1653 -0.1168 -0.0596 0.0180 0.1099 0.1967 0.2582 0.2820 0.2673 0.2244 0.1699 0.1168 0.0698 0.0403 0.0226 0.0000 -0.0449 -0.1226 -0.2334 -0.3682 -0.5126 -0.6555 -0.7851 -0.8533 -0.8257 -0.6981 -0.4938 -0.2568 -0.0410 0.1038 0.1504 0.1168 0.0616 -0.0045 -0.0718 -0.1226 -0.1414 -0.1226 -0.0718 -0.0045 0.0616 0.1168 0.1686 0.2213 0.2753 0.3304 0.3861 0.4418 0.4969 0.5509 0.6036 0.6555 0.6915 0.6529 0.5124 0.2820 0.0000 -0.2820 -0.5124 -0.6529 -0.6915 -0.6555 -0.6086 -0.5790 -0.5613 -0.5387 -0.4938 -0.4161 -0.3053 -0.1705 -0.0261 0.1168 0.2510 0.3458 0.3748 0.3304 0.2245 0.0857 -0.0469 -0.1350 -0.1551 -0.1168 -0.0811 -0.1162 -0.2364 -0.4161 -0.6106 -0.7722 -0.8637 -0.8668 -0.7871 -0.6555 -0.4931 -0.2476 0.0748 0.4161 0.7071 0.8948 0.9582 0.9115 0.7954 0.6555 0.4978 0.2788 0.0130 -0.2451 -0.4378 -0.5271 -0.5073 -0.4040 -0.2613 -0.1168 0.0343 0.2152 0.3998 0.5387 0.5903 0.5387 0.3998 0.2152 0.0343 -0.1168 -0.2659 -0.4352 -0.5952 -0.6981 -0.7071 -0.6128 -0.4378 -0.2288 -0.0363
0.0000 -0.1342 -0.2255 -0.2398 -0.1617 0.0000 0.2133 0.4304 0.6006 0.6902 0.7071 0.7011 0.6662 0.5918 0.4826 0.3536 0.2245 0.1153 0.0410 0.0061 0.0000 -0.0000 0.0000 0.0000 0.0000 0.0000 0.0000 0.0000 0.0000 -0.0000 0.0000 0.0048 0.0246 0.0461 0.0449 0.0000 -0.0965 -0.2367 -0.3997 -0.5608 -0.7071 -0.8413 -0.9326 -0.9469 -0.8688 -0.7071 -0.4938 -0.2768 -0.1065 -0.0169 0.0000 0.0000 0.0000 0.0000 0.0000 0.0000 0.0000 0.0000 0.0000 0.0000 0.0000 0.0061 0.0410 0.1153 0.2245 0.3536 0.4826 0.5918 0.6662 0.7011 0.7071 0.6950 0.6252 0.4765 0.2582 0.0000 -0.2582 -0.4765 -0.6252 -0.6950 -0.7071 -0.7119 -0.7317 -0.7532 -0.7520 -0.7071 -0.6106 -0.4704 -0.3074 -0.1463 0.0000 0.1402 0.2665 0.3551 0.3861 0.3536 0.2694 0.1614 0.0655 0.0109 0.0000 -0.0169 -0.1065 -0.2768 -0.4938 -0.7071 -0.8688 -0.9469 -0.9326 -0.8413 -0.7071 -0.5439 -0.2932 0.0400 0.3973 0.7071 0.9136 0.9930 0.9572 0.8461 0.7071 0.5499 0.3342 0.0753 -0.1728 -0.3536 -0.4310 -0.4012 -0.2910 -0.1451 0.0000 0.1511 0.3320 0.5165 0.6555 0.7071 0.6555 0.5165 0.3320 0.1511 0.0000 -0.1511 -0.3320 -0.5165 -0.6555 -0.7071 -0.6555 -0.5165 -0.3320 -0.1511
